0.25502409,0.25584073,0.25662340,0.26602300,0.26682688,0.26763554,0.26849218,0.76271229,0.76549636,0.76794909,0.77077161,0.77361487,0.77611999,0.77900301,0.78190749,0.07583029,0.78741209,0.79037963,0.07575155,0.79600464,0.79903756,0.80209361,0.07589204,0.80788724,0.81101148,0.07575840,0.33650817,0.33752366,0.07575495,0.34213527,0.34502002,0.08439804,0.07575840,0.31157317,0.08439804,0.30870666,0.07575840,0.08439804,0.30893405,0.07971430,0.30921878,0.07576180,0.30921878,0.30927571,0.08440227,0.30950399,0.07576180,0.31013330,0.08440227,0.31059261,0.31059261,0.07576180,0.08440227,0.31047763,0.31047763,0.31047763,0.30978974,0.07576526,0.30933275,0.30933275,0.30933275,0.30933275,0.07576865,0.30933275,0.09039116,0.09059126,0.09079224,0.07576865,0.07587833,0.31042023,0.31024804,0.31030538,0.08441073,0.07577205,0.11651910,0.11674613,0.08441073,0.08443624,0.07577205,0.07577205,0.31122639,0.08441496,0.08444047,0.31116863,0.07577551,0.12960703,0.08441496,0.08450002,0.11119074,0.10797066,0.07577551,0.08016754,0.07979388,0.10863484,0.10880387,0.02696920,0.07577891,0.08441926,0.11281318,0.11298031,0.11620433,0.11634136,0.07577891,0.08451278,0.13088096,0.13103432,0.13118798,0.07578236,0.08442349,0.14223183,0.14236463,0.19416548,0.08442349,0.19448055,0.19463850,0.19479669,0.20393665,0.28047671,0.28066440,0.38237115,0.38289472,0.49219128,0.31296815,0.31082280,0.31053515,0.26459654,0.16200979,0.18691863,0.24330039,0.24330039,0.24330039,0.05408568,0.24330039,0.24330039,0.24330039,0.24330039,0.02397543,0.02501196,0.06903726,0.23554642,0.23446013,0.04216260,0.02501232,0.02576125,0.08168591,0.06781769,0.07010168,0.06492055,0.06076128,0.05710477,0.05411184,0.05397779,0.05397261,0.05396563,0.05396045,0.05395526,0.05395001,0.03982651,0.03827119,0.03690404,0.03549403,0.03426177,0.03310245,0.03202266,0.03103000,0.03091163,0.04066837,0.04067135,0.04067135,0.00961042,0.00958377,0.04066742,0.04068315,0.04067230,0.04026819,0.04067230,0.04067230,0.04067230,0.04066938,0.03624940,0.04068315,0.04067135,0.04067135,0.04067332,0.04067427,0.04067427,0.04067034,0.03763926,0.03695691,0.03675127,0.03642726,0.03505647,0.03446520,0.03150785,0.03127176,0.03077215,0.03028828,0.02981997,0.02936530,0.02892435,0.02849645,0.02792722,0.02792770,0.02791792,0.02763194,0.02724958,0.02687764,0.02651572,0.02642423,0.02642340,0.02636528,0.02516353,0.02484822,0.01204300,0.01189536,0.01175129,0.01172370,0.01172370,0.01172376,0.01172376,0.01172388,0.01172394,0.01172394,0.01172406,0.01172406,0.01172412,0.01172417,0.01172417,0.01172429,0.01172435,0.01172435,0.01172441,0.01172441,0.01172453,0.01172459,0.01172459,0.01172471,0.01172471,0.01172477,0.01172483,0.01172483,0.01172495,0.01172495,0.01172501,0.01172507,0.01172507,0.01172519,0.01172519,0.01172525,0.01172537,0.01172537,0.01172543,0.01172549,0.01172549,0.01172561,0.01172561,0.01172566,0.01172572,0.01172572,0.01172584,0.01172584,0.01172590,0.01172602,0.01172602,0.01172608,0.01172608,0.01172614,0.01172626,0.01172626,0.01172632,0.01172632
0.12742174,0.12743140,0.12743140,0.12743140,0.12743140,0.12743140,0.12743140,0.07157302,0.12743140,0.07273984,0.12743140,0.12743140,0.12743140,0.12743140,0.07572419,0.07572419,0.07572419,0.07572419,0.07572759,0.07572759,0.07572759,0.07572759,0.07572759,0.07572759,0.07572759,0.07572759,0.07572759,0.07572759,0.07573104,0.07573104,0.07573104,0.07573104,0.07573104,0.07573104,0.07573104,0.07573104,0.07573104,0.07573104,0.07573104,0.07573444,0.07573444,0.07573444,0.07573444,0.07573444,0.07573444,0.07573444,0.07573444,0.07573444,0.07573444,0.07573784,0.07573784,0.07573784,0.07573784,0.07573784,0.07573784,0.07573784,0.07573784,0.07573784,0.07573784,0.07573784,0.07574130,0.07574130,0.07574130,0.07574130,0.07574130,0.07574130,0.07574130,0.07574130,0.07574130,0.07574130,0.07574130,0.07574469,0.07574469,0.07574469,0.07574469,0.07574469,0.07574469,0.07574469,0.07574469,0.07574469,0.07574469,0.07574815,0.07574815,0.07574815,0.07574815,0.07574815,0.07574815,0.07574815,0.07574815,0.07574815,0.07574815,0.03848630,0.03943986,0.04044289,0.04149521,0.02696920,0.04380852,0.07575155,0.07575155,0.04774159,0.07575155,0.07575155,0.05245555,0.07575495,0.07575495,0.07575495,0.07575495,0.06278503,0.07575495,0.07575495,0.07575495,0.07575495,0.08439804,0.08439804,0.14479739,0.14603258,0.06278032,0.06951780,0.07093752,0.11152334,0.08513898,0.09038628,0.10003895,0.11151595,0.11404008,0.12043358,0.12043358,0.12044222,0.12044222,0.12044222,0.05191821,0.05153704,0.05152595,0.02606058,0.05154658,0.02367997,0.02357382,0.02355731,0.02354306,0.02350748,0.02349162,0.02353913,0.02355331,0.02356422,0.02361334,0.02606100,0.07010460,0.06491805,0.06076348,0.05710477,0.05411011,0.05397606,0.05397088,0.05396563,0.05395872,0.05363441,0.05135405,0.03982747,0.03827119,0.03152323,0.03152323,0.03152681,0.03310245,0.03202325,0.03103000,0.03091049,0.04066539,0.04067034,0.04067034,0.00961018,0.00958335,0.04066640,0.04068220,0.04066938,0.04026819,0.04067135,0.04067135,0.04067135,0.04066837,0.03624863,0.04068220,0.04066837,0.04066837,0.04067230,0.04067332,0.04067332,0.04066938,0.03763926,0.03695768,0.03630120,0.03566832,0.03505647,0.03446448,0.03149605,0.03127176,0.03077215,0.03028888,0.02981997,0.02936530,0.02892435,0.02849645,0.02792257,0.02792305,0.02791703,0.02763194,0.02724958,0.02687764,0.02651572,0.02642381,0.02642256,0.02636486,0.02516353,0.02484822,0.02454072,0.01189530,0.01178193,0.01177883,0.01177579,0.01177275,0.01176918,0.01176959,0.01176995,0.01177025,0.01177067,0.01177156,0.01177168,0.01177168,0.01177174,0.01177174,0.01177174,0.01177180,0.01177180,0.01177192,0.01177192,0.01177090,0.01176959,0.01176834,0.01176703,0.01176572,0.01177037,0.01177496,0.01177961,0.01178372,0.01178068,0.01177764,0.01177466,0.01177126,0.01177090,0.01177126,0.01177156,0.01177198,0.01177299,0.01177299,0.01177305,0.01177305,0.01177305,0.01177317,0.01177317,0.01177323,0.01177323,0.01177329,0.01177251,0.01177126,0.01176995,0.01176870,0.01176739,0.01177085,0.01177555,0.01178026,0.01178497,0.01178247
0.07264531,0.07264531,0.07835174,0.07336969,0.07336969,0.07336969,0.07336969,0.07157302,0.07336969,0.07336969,0.07337290,0.07337290,0.07363052,0.07424635,0.07487256,0.07551289,0.07572419,0.07572419,0.07572419,0.07572419,0.07572419,0.07572419,0.07572419,0.07572759,0.07572759,0.07572759,0.07572759,0.07572759,0.07572759,0.07572759,0.07572759,0.07572759,0.07572759,0.07572759,0.07573104,0.07573104,0.07573104,0.07573104,0.07573104,0.07573104,0.07573104,0.07573104,0.07573104,0.07573104,0.07573104,0.07573444,0.07573444,0.07573444,0.07573444,0.07573444,0.07573444,0.07573444,0.07573444,0.07573444,0.07573444,0.07573784,0.07573784,0.07573784,0.07573784,0.07573784,0.07573784,0.07573784,0.07573784,0.07573784,0.07573784,0.07573784,0.07574130,0.07574130,0.07574130,0.02513033,0.02553308,0.02594930,0.02637935,0.02682346,0.07574130,0.07574130,0.07574130,0.07574469,0.07574469,0.07574469,0.07574469,0.07574469,0.03165227,0.03230006,0.07574469,0.07574469,0.03440511,0.07574815,0.03593421,0.07574815,0.07574815,0.07574815,0.07574815,0.07574815,0.07574815,0.02696920,0.07574815,0.04508949,0.07575155,0.07575155,0.04921776,0.04451996,0.04451996,0.04539693,0.07575155,0.07575155,0.07575155,0.07575155,0.06535805,0.07575495,0.04764265,0.04876292,0.05077744,0.05339033,0.05527419,0.06247408,0.06236720,0.06593603,0.07041943,0.07258249,0.07716966,0.07832617,0.07832617,0.07832617,0.07832617,0.07832617,0.07832617,0.07832981,0.07668990,0.07668990,0.05143595,0.05138082,0.05137766,0.05137766,0.02311206,0.02311808,0.02312416,0.02312386,0.02312350,0.02312291,0.02312321,0.02312321,0.02312386,0.02312416,0.02312386,0.02311748,0.06782592,0.06491554,0.06076348,0.05710674,0.05410838,0.05397433,0.05396915,0.05396390,0.05208099,0.04931182,0.04931182,0.03982938,0.03827119,0.03153390,0.03153211,0.03153628,0.03310245,0.03202325,0.03103000,0.03090996,0.04066247,0.04066938,0.04066938,0.00961000,0.00958300,0.04066539,0.04068119,0.04066640,0.04026819,0.04067034,0.04067034,0.04067034,0.04066742,0.03624785,0.04068119,0.04066539,0.04066742,0.04067135,0.04067230,0.04067230,0.04066837,0.03763926,0.03695768,0.03630197,0.03566832,0.03505570,0.03446448,0.03149486,0.03127235,0.03077275,0.03028888,0.02981997,0.02936530,0.02892435,0.02849645,0.02791792,0.02791840,0.02791655,0.02763194,0.02724958,0.02687764,0.02651572,0.02642340,0.02642173,0.02636486,0.02516353,0.02484822,0.02454072,0.01189530,0.01178157,0.01177859,0.01177555,0.01177251,0.01176834,0.01176870,0.01176912,0.01176941,0.01176977,0.01177132,0.01177132,0.01177144,0.01177144,0.01177150,0.01177150,0.01177156,0.01177156,0.01177156,0.01177168,0.01177067,0.01176936,0.01176810,0.01176679,0.01176548,0.01177001,0.01177466,0.01177937,0.01178342,0.01178044,0.01177734,0.01177430,0.01177043,0.01177001,0.01177037,0.01177073,0.01177108,0.01177263,0.01177275,0.01177275,0.01177281,0.01177281,0.01177287,0.01177287,0.01177287,0.01177299,0.01177299,0.01177222,0.01177090,0.01176965,0.01176834,0.01176703,0.01177049,0.01177520,0.01177991,0.01178467,0.01178223
0.06695700,0.06746591,0.06798262,0.06851006,0.06904293,0.06958414,0.07013393,0.07069540,0.07126296,0.07183969,0.07242579,0.07302475,0.07363052,0.07424635,0.07487256,0.07551289,0.07572079,0.07572079,0.07572079,0.07572419,0.07572419,0.07572419,0.07572419,0.07572419,0.07572419,0.07572419,0.07572419,0.07572419,0.07572419,0.07572759,0.07572759,0.07572759,0.07572759,0.07572759,0.07572759,0.07572759,0.07572759,0.07572759,0.07572759,0.07572759,0.07573104,0.07573104,0.07573104,0.07573104,0.07573104,0.07573104,0.01847124,0.01865631,0.01887733,0.01910371,0.01933551,0.01957309,0.01981652,0.02006585,0.07573444,0.07573444,0.07573444,0.07573444,0.07573444,0.07573444,0.02200669,0.07573784,0.07573784,0.07573784,0.07573784,0.02365625,0.02399463,0.02437955,0.07573784,0.07573784,0.02555216,0.02594972,0.07574130,0.07574130,0.07574130,0.07574130,0.07574130,0.07574130,0.02930993,0.07574130,0.07574130,0.03102023,0.07574469,0.07574469,0.07574469,0.07574469,0.07574469,0.03512031,0.03593266,0.03675449,0.07574469,0.07574469,0.07574469,0.04049951,0.04152495,0.02696878,0.03766632,0.03769255,0.03878165,0.04130519,0.03275794,0.03436285,0.04474438,0.05381507,0.05381334,0.05380988,0.05380643,0.05380297,0.05379951,0.05379951,0.04727346,0.04800391,0.04970038,0.05287212,0.05379951,0.05503309,0.05806131,0.05806131,0.05806131,0.05806131,0.05806131,0.05805529,0.05804927,0.05804324,0.05804521,0.05804724,0.05804724,0.05804724,0.05805529,0.05805529,0.05241126,0.05805529,0.05805529,0.05805529,0.02309519,0.02310950,0.02312446,0.02312511,0.02312511,0.02312511,0.02312541,0.02312541,0.02312541,0.02312541,0.02312386,0.02310407,0.02309072,0.05377192,0.05377192,0.05377364,0.05377364,0.05446494,0.05446494,0.05446494,0.05210364,0.04931617,0.04931617,0.03983033,0.03827119,0.03155464,0.03154099,0.03154516,0.03310245,0.03202325,0.03103000,0.03090936,0.04066146,0.04066837,0.04066837,0.00960964,0.00958252,0.03758443,0.04068023,0.04066342,0.04026819,0.04066938,0.04066938,0.04066938,0.04066640,0.03624630,0.04068023,0.04066247,0.04066640,0.04067034,0.04067135,0.04067135,0.04066742,0.03763926,0.03695852,0.03630197,0.03566760,0.03505570,0.03446448,0.03149367,0.03127235,0.03077275,0.03028888,0.02981997,0.02936530,0.02892435,0.02849692,0.02791327,0.02791375,0.02791375,0.02763194,0.02724958,0.02687764,0.02651572,0.02642340,0.02642131,0.02636445,0.02516353,0.02484822,0.02454072,0.01189530,0.01178134,0.01177830,0.01177520,0.01177216,0.01176745,0.01176786,0.01176822,0.01176852,0.01176918,0.01177102,0.01177108,0.01177108,0.01177114,0.01177114,0.01177126,0.01177126,0.01177132,0.01177132,0.01177132,0.01177037,0.01176912,0.01176781,0.01176655,0.01176512,0.01176965,0.01177436,0.01177901,0.01178318,0.01178008,0.01177710,0.01177406,0.01176959,0.01176912,0.01176953,0.01176983,0.01177019,0.01177239,0.01177239,0.01177251,0.01177251,0.01177257,0.01177257,0.01177263,0.01177263,0.01177263,0.01177275,0.01177192,0.01177067,0.01176941,0.01176810,0.01176679,0.01177025,0.01177496,0.01177967,0.01178438,0.01178193
0.06695700,0.06746591,0.06798262,0.06850726,0.06904293,0.06958414,0.07013393,0.07069242,0.07126296,0.07183969,0.07242579,0.07302160,0.07363052,0.07424635,0.07487256,0.07550949,0.07572079,0.07572079,0.07572079,0.07572079,0.07572079,0.07572079,0.07572079,0.07572079,0.01469755,0.01483435,0.01497376,0.01511586,0.01526076,0.01540834,0.01555884,0.01571226,0.01586872,0.01602841,0.07572419,0.07572759,0.07572759,0.07572759,0.07572759,0.07572759,0.07572759,0.07572759,0.07572759,0.07572759,0.01802319,0.01824230,0.07573104,0.07573104,0.07573104,0.07573104,0.07573104,0.01958746,0.07573104,0.02006585,0.07573104,0.07573104,0.07573444,0.07573444,0.02142990,0.07573444,0.02200669,0.07573444,0.02264780,0.07573444,0.02331048,0.07573444,0.02399463,0.07573784,0.02478987,0.02514917,0.07573784,0.02594930,0.07573784,0.02688539,0.07573784,0.07573784,0.07573784,0.02878988,0.07574130,0.07574130,0.07574130,0.07574130,0.07574130,0.07574130,0.07574130,0.07574130,0.03436423,0.07574130,0.02489543,0.07574469,0.07574469,0.03851277,0.07574469,0.07574469,0.07574469,0.02696270,0.03067148,0.03059596,0.03126770,0.03140581,0.03186268,0.03344959,0.03361243,0.04272849,0.04272628,0.04272521,0.04272521,0.04272521,0.04272741,0.04273069,0.04279059,0.04470504,0.04613221,0.04613221,0.04613221,0.04613346,0.04613346,0.04613346,0.04613346,0.04613346,0.04613346,0.04613471,0.04613471,0.04613471,0.04613471,0.04613471,0.04613221,0.04613221,0.04613221,0.04613221,0.04613346,0.04613346,0.04613346,0.04613346,0.02298194,0.02297187,0.02297187,0.02297312,0.02297562,0.02297342,0.02297187,0.02297437,0.02297503,0.02297187,0.02297187,0.02297312,0.02299106,0.04271871,0.04271871,0.04271978,0.04271978,0.04271978,0.04271978,0.04271978,0.04271978,0.04271978,0.04326177,0.03983033,0.03827119,0.03161830,0.03154993,0.03155464,0.03310180,0.03202266,0.03103000,0.03090823,0.04066050,0.04018909,0.03962243,0.00958681,0.00958073,0.03865475,0.03849602,0.03838676,0.03830528,0.03822410,0.03814328,0.03806281,0.03798264,0.03624553,0.03709501,0.03709501,0.03709501,0.03709418,0.03709418,0.03709418,0.03709334,0.03709334,0.03695852,0.03630120,0.03566760,0.03505570,0.03446448,0.03149307,0.03127235,0.03077275,0.03028888,0.02981997,0.02936530,0.02892488,0.02849692,0.02790862,0.02790910,0.02790910,0.02763194,0.02724958,0.02687764,0.02651572,0.02642298,0.02642089,0.02636445,0.02516353,0.02484822,0.02454072,0.01189530,0.01178110,0.01177800,0.01177496,0.01177192,0.01176661,0.01176697,0.01176727,0.01176769,0.01176888,0.01177073,0.01177085,0.01177085,0.01177090,0.01177090,0.01177090,0.01177102,0.01177102,0.01177108,0.01177108,0.01177007,0.01176888,0.01176751,0.01176620,0.01176488,0.01176941,0.01177406,0.01177871,0.01178283,0.01177985,0.01177681,0.01177371,0.01176876,0.01176828,0.01176858,0.01176900,0.01176977,0.01177210,0.01177216,0.01177222,0.01177222,0.01177222,0.01177234,0.01177234,0.01177239,0.01177239,0.01177251,0.01177168,0.01177043,0.01176912,0.01176786,0.01176643,0.01176995,0.01177466,0.01177937,0.01178408,0.01178169
0.06749577,0.06800461,0.01221776,0.01231211,0.01240796,0.01250535,0.01260430,0.01270479,0.01280695,0.01291072,0.01301617,0.01312351,0.01323247,0.07474584,0.07536364,0.07573104,0.07573104,0.01382107,0.01393563,0.01404929,0.01418459,0.07573104,0.07573104,0.07573104,0.07573104,0.07573104,0.07573444,0.07573444,0.07573444,0.07573444,0.07573444,0.07573444,0.07573444,0.01602841,0.07573444,0.01636928,0.07573784,0.07573784,0.07573784,0.07573784,0.07573784,0.01744902,0.07573784,0.07573784,0.01802319,0.07573784,0.07573784,0.01866961,0.07574130,0.07574130,0.07574130,0.07574130,0.07574130,0.02006585,0.07574130,0.07574130,0.02086932,0.02114600,0.07574469,0.07574469,0.02200645,0.07574469,0.07574469,0.07574469,0.07574469,0.07574469,0.02399492,0.07574815,0.02475804,0.07574815,0.07574815,0.02594894,0.07574815,0.07574815,0.07574815,0.07574815,0.07575155,0.07575155,0.07575155,0.02053321,0.07575155,0.07575155,0.07575155,0.03227520,0.02218801,0.02186078,0.02250171,0.02343327,0.02346504,0.02453929,0.02497363,0.03545201,0.03545279,0.03545350,0.03545350,0.02695447,0.03058648,0.03050584,0.03126824,0.03140933,0.03181559,0.03230381,0.03334719,0.03448218,0.03545499,0.03544528,0.03626585,0.03766293,0.03825027,0.03825110,0.03825110,0.03825110,0.03825110,0.03825110,0.03825110,0.03825200,0.03825200,0.03825200,0.03825200,0.03825200,0.03825289,0.03825289,0.03825289,0.03747362,0.03825289,0.03747362,0.03825200,0.03825200,0.03825200,0.03825200,0.03825289,0.03825289,0.03825289,0.03825289,0.02297247,0.02296209,0.02296335,0.02296335,0.02299357,0.02299041,0.02299041,0.02299452,0.02299297,0.02296335,0.02296305,0.02296209,0.02299202,0.03543627,0.03543627,0.03543627,0.03543705,0.03543705,0.03543705,0.03543705,0.03543705,0.03543705,0.03543776,0.03543776,0.03543776,0.03166545,0.03155941,0.03153211,0.03310180,0.03202266,0.03102941,0.03090769,0.03575194,0.03568733,0.03562290,0.00958502,0.00957865,0.03543103,0.03536684,0.03343225,0.03317839,0.03292769,0.03272218,0.03256655,0.03243369,0.03231812,0.03220338,0.03208941,0.03197628,0.03186393,0.03178781,0.03171510,0.03164214,0.03157008,0.03118223,0.03075415,0.03075522,0.03075582,0.03075695,0.03075808,0.03075862,0.03032828,0.02985072,0.02938950,0.02894181,0.02850807,0.02808619,0.02790404,0.02790445,0.02790445,0.02763194,0.02724958,0.02687764,0.02651531,0.02642256,0.02642048,0.02636403,0.02516353,0.02484822,0.02454072,0.01189530,0.01178074,0.01177770,0.01177466,0.01177108,0.01176572,0.01176614,0.01176643,0.01176679,0.01176858,0.01177043,0.01177049,0.01177061,0.01177061,0.01177067,0.01177067,0.01177073,0.01177073,0.01177073,0.01177085,0.01176983,0.01176852,0.01176727,0.01176596,0.01176459,0.01176912,0.01177371,0.01177841,0.01178259,0.01177949,0.01177657,0.01177341,0.01176792,0.01176739,0.01176781,0.01176810,0.01176941,0.01177180,0.01177180,0.01177192,0.01177198,0.01177198,0.01177198,0.01177210,0.01177210,0.01177216,0.01177216,0.01177144,0.01177007,0.01176888,0.01176751,0.01176620,0.01176959,0.01177430,0.01177901,0.01178372,0.01178134
0.01203299,0.01214111,0.01222640,0.06890965,0.06943441,0.06996429,0.07050825,0.07105768,0.07162196,0.07219208,0.07277453,0.07336325,0.07396812,0.07457972,0.07519138,0.07581658,0.07606405,0.07606405,0.01393527,0.01404929,0.07606405,0.07606405,0.01444161,0.07606751,0.07606751,0.07606751,0.07606751,0.07606751,0.07606751,0.01541942,0.07606751,0.07606751,0.07606751,0.01602841,0.07607097,0.07607097,0.07607097,0.01671255,0.07607097,0.07607097,0.07607097,0.07607097,0.07607097,0.07607097,0.01802319,0.07607443,0.07607443,0.07607443,0.01889098,0.07607443,0.07607443,0.07607443,0.07607443,0.02006585,0.07607443,0.07607788,0.01840758,0.01840758,0.01840758,0.01840782,0.01847655,0.01869917,0.07607788,0.07607788,0.07607788,0.07608134,0.02399492,0.02437955,0.07608134,0.07608134,0.07608134,0.02594894,0.07608134,0.07608134,0.02730054,0.07608134,0.07608474,0.07608474,0.07608474,0.02044863,0.02055860,0.02093154,0.02123517,0.02125746,0.02136552,0.02182919,0.02229476,0.02343357,0.02346373,0.02357614,0.02494097,0.03028119,0.03028065,0.03027958,0.03027898,0.02694625,0.03027737,0.03027684,0.03027630,0.03027517,0.03027463,0.03051305,0.03146708,0.03253746,0.03268773,0.03268838,0.03268838,0.03268838,0.03268838,0.03268838,0.03268707,0.03268582,0.03268516,0.03268457,0.03268516,0.03268582,0.03268647,0.03268582,0.03268457,0.03268391,0.03268326,0.03268266,0.03201288,0.03201288,0.03269088,0.03269029,0.03269029,0.03269029,0.03269029,0.03269029,0.03268963,0.03268963,0.03268963,0.03268963,0.02297783,0.02295488,0.02295429,0.02295429,0.02295429,0.02295429,0.02295429,0.02295429,0.02295458,0.02295458,0.02295429,0.02295613,0.02301377,0.03028065,0.03028119,0.03028119,0.03028119,0.03028119,0.03028119,0.03028172,0.03028172,0.03028172,0.03028172,0.03028226,0.03028226,0.03028226,0.03028226,0.03028286,0.03028286,0.03028286,0.03028286,0.03065521,0.03065521,0.03065580,0.03065580,0.00958318,0.00957656,0.00965542,0.03033757,0.03021032,0.03008408,0.02995891,0.02983481,0.02971113,0.02958906,0.02946794,0.02934736,0.02922821,0.02709335,0.02694798,0.02680546,0.02666700,0.02652955,0.02639347,0.02625632,0.02612060,0.02598673,0.02585453,0.02572376,0.02559465,0.02546680,0.02534026,0.02521497,0.02509803,0.02509314,0.02509278,0.02509427,0.02509612,0.02494240,0.02459002,0.02424705,0.02409107,0.02409142,0.02409178,0.02409214,0.02409250,0.02409279,0.02409315,0.02409351,0.02409387,0.01189530,0.01178050,0.01177746,0.01177436,0.01177025,0.01176488,0.01176524,0.01176554,0.01176596,0.01176828,0.01177019,0.01177025,0.01177025,0.01177037,0.01177037,0.01177043,0.01177043,0.01177049,0.01177049,0.01177049,0.01176953,0.01176828,0.01176697,0.01176566,0.01176423,0.01176876,0.01177341,0.01177812,0.01178235,0.01177925,0.01177621,0.01177257,0.01176715,0.01176655,0.01176685,0.01176721,0.01176918,0.01177150,0.01177156,0.01177168,0.01177168,0.01177174,0.01177174,0.01177180,0.01177180,0.01177180,0.01177192,0.01177114,0.01176983,0.01176858,0.01176727,0.01176590,0.01176930,0.01177406,0.01177877,0.01178348,0.01178110
0.01203299,0.06774652,0.06825918,0.06877971,0.01241696,0.06981868,0.07036037,0.07090754,0.07146633,0.07203711,0.07261390,0.07320321,0.07380540,0.07441098,0.01346582,0.07564223,0.07625419,0.07625765,0.01393491,0.01404929,0.07625765,0.07625765,0.07625765,0.07625765,0.01470822,0.07625765,0.01498491,0.07625765,0.07626117,0.07626117,0.07626117,0.07626117,0.07626117,0.01602841,0.07626117,0.07626117,0.07626117,0.07626117,0.01690400,0.01707035,0.07626462,0.07626462,0.07626462,0.07626462,0.01802319,0.07626462,0.07626462,0.01867062,0.07626462,0.07626808,0.01934958,0.01731753,0.01731753,0.01731771,0.01731771,0.01731771,0.01745975,0.01769137,0.01792920,0.01817370,0.01842481,0.01868314,0.07627154,0.07627154,0.07627154,0.02365530,0.02399528,0.07627154,0.07627154,0.07627154,0.07627500,0.02594894,0.02643633,0.02643591,0.02643550,0.02643508,0.02643424,0.02643383,0.02054602,0.02044785,0.02055812,0.02093130,0.02123433,0.02125937,0.02136493,0.02182859,0.02233899,0.02252525,0.02346271,0.02357584,0.02395660,0.02448559,0.02509052,0.02643091,0.02643132,0.02643216,0.02642632,0.02704269,0.02780736,0.02853280,0.02853233,0.02853185,0.02853137,0.02853036,0.02852988,0.02852941,0.02852893,0.02852845,0.02852798,0.02852744,0.02852696,0.02852601,0.02852553,0.02852506,0.02852458,0.02852410,0.02852357,0.02852357,0.02852458,0.02852553,0.02793980,0.02793980,0.02793700,0.02852798,0.02852845,0.02852941,0.02852988,0.02853036,0.02853084,0.02853137,0.02853185,0.02853233,0.02853280,0.02853280,0.02355927,0.02853280,0.02373457,0.02373457,0.02373457,0.02373493,0.02373493,0.02373457,0.02373493,0.02373457,0.02373392,0.02355993,0.02357316,0.02642673,0.02642673,0.02642715,0.02642715,0.02642715,0.02642757,0.02642757,0.02642757,0.02642799,0.02642799,0.02642799,0.02642840,0.02642840,0.02642840,0.02642840,0.02642882,0.02642882,0.02642882,0.02642882,0.02642882,0.02642924,0.02642924,0.00958169,0.00957447,0.00964624,0.02587009,0.02573162,0.02559424,0.02545828,0.02532381,0.02519071,0.02505940,0.02505416,0.02505452,0.02505714,0.02505976,0.02506238,0.02506501,0.02506727,0.02506876,0.02507067,0.02507252,0.02499038,0.02487439,0.02475912,0.02465648,0.02457887,0.02450133,0.02442461,0.02434808,0.02427232,0.02419669,0.02412188,0.02404726,0.02397335,0.02389956,0.02382660,0.02375406,0.02359641,0.02327657,0.02298069,0.02293950,0.02293980,0.02293980,0.02293980,0.02294016,0.02294016,0.01189530,0.01178020,0.01177710,0.01162583,0.01149565,0.01176399,0.01176429,0.01176471,0.01176530,0.01176804,0.01176983,0.01176995,0.01177001,0.01177001,0.01177007,0.01177007,0.01177019,0.01177019,0.01177025,0.01177025,0.01176930,0.01176804,0.01176673,0.01176536,0.01176399,0.01176846,0.01177317,0.01177776,0.01178199,0.01177895,0.01177597,0.01177174,0.01176632,0.01176566,0.01176596,0.01176637,0.01176888,0.01177126,0.01177132,0.01177132,0.01177144,0.01177144,0.01177150,0.01177150,0.01177156,0.01177156,0.01177168,0.01177085,0.01176959,0.01176828,0.01176697,0.01176566,0.01176894,0.01177371,0.01177841,0.01178318,0.01178074
0.01203299,0.06762094,0.06813169,0.06864739,0.06915963,0.06967372,0.07021314,0.01271397,0.07131142,0.07187969,0.07245398,0.07304383,0.01324213,0.07424635,0.07485253,0.07546872,0.07610202,0.07655347,0.01393467,0.01404941,0.07655347,0.07655347,0.07655347,0.07655347,0.07655347,0.07655347,0.07655347,0.07655347,0.07655693,0.07655693,0.07655693,0.07655693,0.07655693,0.01602841,0.01425243,0.01425254,0.01425254,0.01425266,0.01425266,0.01431894,0.01445019,0.01460236,0.01475775,0.01492089,0.01508975,0.01526243,0.01845360,0.07656044,0.07656044,0.07656390,0.07656390,0.01732129,0.01732147,0.01732147,0.01732165,0.01732165,0.01747590,0.01853573,0.01853591,0.01853591,0.01861262,0.07656742,0.07656742,0.07656742,0.07656742,0.02345288,0.02345258,0.02345193,0.02345157,0.02345127,0.02345091,0.02345127,0.02345193,0.02345222,0.02345258,0.02345288,0.02345354,0.02345324,0.02061772,0.02044833,0.02055758,0.02093101,0.02123302,0.02126235,0.02125454,0.02139139,0.02184570,0.02232713,0.02283085,0.02336311,0.02344960,0.02344567,0.02371013,0.02428144,0.02491021,0.02531082,0.02531046,0.02530968,0.02530927,0.02530891,0.02530855,0.02530813,0.02530778,0.02530736,0.02530700,0.02530736,0.02530778,0.02530855,0.02530927,0.02530968,0.02531046,0.02531117,0.02531159,0.02531195,0.02531195,0.02531237,0.02531272,0.02531272,0.02531308,0.02478546,0.02478582,0.02478582,0.02531308,0.02531308,0.02531308,0.02531308,0.02531272,0.02531272,0.02531272,0.02531237,0.02531237,0.02531237,0.02531237,0.02531195,0.02366662,0.02531195,0.02531159,0.02531159,0.02531159,0.02531117,0.02531117,0.02531117,0.02531117,0.02531082,0.02531082,0.02366698,0.02369237,0.02365226,0.02344304,0.02344304,0.02344340,0.02344340,0.02344340,0.02344370,0.02344370,0.02344370,0.02344406,0.02344406,0.02344406,0.02344436,0.02344436,0.02344436,0.02344471,0.02344471,0.02344471,0.02344501,0.02344501,0.02344501,0.02344537,0.00958109,0.00957239,0.00963700,0.02344567,0.02344567,0.02372986,0.02372986,0.02372986,0.02373022,0.02373022,0.02373022,0.02373022,0.02367765,0.02359343,0.02350974,0.02342671,0.02334422,0.02326232,0.02318102,0.02310026,0.02302009,0.02294046,0.02286136,0.02278280,0.02270484,0.02262736,0.02255011,0.02247363,0.02239746,0.02232206,0.02225280,0.02218396,0.02211523,0.02204722,0.02197963,0.02191246,0.02184540,0.02177793,0.02170801,0.02163887,0.02156985,0.02150160,0.02143371,0.02136606,0.02124804,0.01189530,0.01177991,0.01177347,0.01168007,0.01176858,0.01176310,0.01123828,0.01176381,0.01176500,0.01176769,0.01176959,0.01062864,0.01052260,0.01041585,0.01028228,0.01018864,0.01176995,0.01176995,0.01176995,0.01177001,0.01176900,0.01176769,0.01176643,0.01176506,0.01176363,0.01176810,0.01177281,0.01177746,0.01178175,0.01177871,0.01177561,0.01177090,0.01176548,0.01176483,0.01176512,0.01176590,0.01176858,0.01177090,0.01177102,0.01177108,0.01177108,0.01177114,0.01177114,0.01177126,0.01177126,0.01177132,0.01177132,0.01177061,0.01176936,0.01176804,0.01176673,0.01176530,0.01176870,0.01177341,0.01177812,0.01178283,0.01178050
0.01203299,0.06749303,0.06800187,0.06851846,0.06902302,0.06953222,0.07006652,0.07060910,0.07116020,0.01292008,0.07229788,0.07288200,0.07347894,0.07408244,0.07468594,0.07529599,0.07592637,0.07656390,0.01393432,0.01404941,0.07852775,0.07916135,0.07937485,0.07937485,0.01470822,0.08054471,0.08275772,0.08301163,0.07937861,0.01541942,0.07959325,0.01387763,0.01387763,0.01387775,0.01387787,0.01387787,0.01387996,0.01398230,0.01413047,0.01428175,0.01443637,0.01459438,0.01475573,0.01492077,0.01508945,0.01526201,0.08015603,0.09870297,0.01889032,0.01911676,0.10281617,0.10416306,0.10538000,0.01755601,0.01755601,0.01755619,0.01763815,0.01853532,0.01853532,0.01853556,0.01861245,0.02107483,0.02107483,0.02107483,0.02107483,0.02107483,0.02107483,0.02107483,0.02107483,0.02107483,0.02107459,0.02107430,0.02107406,0.02107406,0.02107376,0.02107352,0.02107322,0.02035505,0.02035505,0.02035529,0.02035529,0.02035529,0.02035558,0.02051962,0.02094305,0.02107138,0.02106929,0.02110851,0.02156019,0.02203965,0.02255976,0.02274269,0.02274203,0.02274269,0.02274299,0.02274329,0.02274329,0.02274329,0.02274358,0.02274358,0.02274358,0.02274388,0.02274388,0.02274388,0.02274418,0.02274418,0.02274418,0.02274454,0.02274454,0.02274454,0.02274484,0.02274484,0.02274484,0.02274513,0.02274513,0.02274513,0.02274543,0.02227110,0.02227110,0.02227140,0.02227140,0.02274454,0.02274454,0.02274418,0.02274418,0.02274418,0.02274388,0.02274388,0.02274388,0.02274358,0.02274358,0.02274358,0.02274358,0.02274329,0.02274299,0.02274299,0.02274269,0.02274233,0.02274203,0.02274203,0.02274174,0.02274144,0.02274144,0.02274114,0.02274084,0.02274048,0.02274048,0.02257919,0.02136934,0.02126396,0.02106613,0.02106613,0.02106613,0.02106613,0.02106613,0.02106613,0.02106613,0.02106637,0.02106637,0.02106637,0.02106661,0.02106661,0.02106661,0.02106661,0.02106691,0.02106691,0.02106691,0.02106714,0.02106714,0.00958061,0.00957030,0.00962782,0.02106744,0.02106768,0.02106768,0.02106768,0.02106798,0.02106798,0.02106798,0.02132559,0.02132559,0.02132583,0.02132583,0.02132583,0.02132613,0.02132613,0.02131152,0.02124298,0.02117485,0.02110720,0.02103996,0.02097291,0.02090651,0.02084053,0.02077496,0.02070987,0.02064514,0.02057546,0.02049554,0.02041626,0.02033752,0.02025944,0.02018196,0.02010507,0.02002871,0.01995295,0.01987779,0.01984018,0.01980460,0.01976913,0.01973379,0.01969856,0.01966345,0.01962870,0.01189530,0.01177961,0.01176959,0.01167452,0.01176781,0.01176226,0.01123774,0.01176298,0.01176471,0.01176739,0.01176936,0.01062441,0.01052243,0.01041770,0.01176953,0.01176959,0.01176959,0.01176965,0.01176965,0.01176965,0.01176876,0.01176745,0.00950337,0.01176471,0.00932479,0.00922096,0.00914854,0.01177722,0.01178140,0.01177841,0.01177538,0.01177007,0.01176465,0.01176393,0.01176423,0.01176554,0.01176828,0.01177067,0.01177073,0.01177073,0.01177085,0.01177090,0.01177090,0.01177102,0.01177102,0.01177102,0.01177108,0.01177037,0.01176900,0.01176781,0.01176637,0.01176500,0.01176834,0.01177305,0.01177776,0.01178247,0.01178026
0.01203299,0.06736839,0.06787533,0.06838441,0.06888700,0.06939418,0.06992054,0.07046086,0.01281631,0.07156694,0.01302570,0.07272405,0.01162815,0.01162815,0.01162821,0.01162821,0.01162833,0.01162839,0.01168901,0.01177478,0.01187557,0.01197809,0.07937110,0.07937485,0.07980150,0.08054471,0.08252162,0.08313501,0.07937485,0.07937485,0.07958949,0.01387727,0.01387727,0.01387739,0.01387739,0.01387751,0.01387972,0.01398254,0.01413804,0.01429701,0.01509601,0.01509601,0.01509613,0.01509792,0.01802319,0.07938236,0.08015603,0.09821183,0.09995551,0.01913488,0.01913488,0.01913488,0.01913488,0.01755548,0.01755566,0.01755566,0.01763797,0.01853490,0.01853490,0.01853514,0.01861245,0.01913464,0.01913464,0.01913464,0.01913464,0.01913464,0.01913464,0.01913464,0.01913440,0.01913440,0.01913440,0.01913440,0.01913440,0.01913440,0.01913440,0.01913440,0.01913440,0.01913440,0.01913399,0.01913333,0.01913291,0.01913071,0.01913071,0.01938760,0.01976794,0.02017951,0.02061445,0.02064896,0.02064896,0.02064920,0.02064920,0.02064920,0.02064943,0.02064943,0.02064943,0.02064967,0.02064967,0.02064967,0.02064997,0.02064997,0.02064997,0.02065021,0.02065021,0.02065021,0.02065045,0.02065045,0.02065045,0.02065069,0.02065069,0.02065069,0.02065098,0.02065098,0.02065098,0.02065122,0.02065146,0.02065146,0.02022135,0.02065200,0.02022135,0.02065098,0.02065098,0.02065098,0.02065069,0.02065069,0.02065069,0.02065045,0.02065045,0.02065021,0.02065021,0.02065021,0.02064997,0.02064997,0.02064997,0.02064967,0.02064967,0.02064967,0.02064943,0.02064943,0.02064943,0.02064920,0.02064920,0.02064896,0.02064896,0.02064896,0.02064866,0.02064866,0.02064866,0.02064842,0.02064842,0.01982117,0.01932997,0.01924372,0.01912809,0.01912785,0.01912785,0.01912785,0.01912785,0.01912785,0.01912767,0.01912767,0.01912767,0.01912767,0.01912767,0.01912743,0.01912767,0.01912767,0.01912767,0.01912785,0.01912785,0.00958008,0.00956821,0.00961983,0.01912809,0.01912832,0.01912832,0.01912832,0.01912832,0.01912850,0.01912850,0.01912850,0.01912874,0.01912874,0.01912874,0.01912898,0.01936299,0.01936299,0.01936323,0.01936323,0.01936340,0.01936340,0.01936340,0.01936364,0.01930440,0.01923072,0.01915759,0.01908499,0.01901299,0.01894152,0.01887053,0.01880014,0.01873022,0.01866090,0.01859200,0.01852715,0.01846475,0.01840258,0.01834083,0.01827967,0.01821870,0.01815820,0.01809824,0.01803851,0.01797915,0.01792038,0.01189530,0.01177937,0.01177287,0.01166898,0.01176697,0.01176143,0.01123941,0.01176208,0.01176441,0.01176715,0.01176900,0.01062375,0.01052237,0.01041889,0.01176930,0.01176930,0.01176936,0.01176936,0.01176941,0.01176941,0.01176846,0.01176721,0.00950104,0.01176447,0.01176310,0.01176751,0.00916791,0.01177687,0.01178116,0.01177812,0.00885218,0.00874168,0.01176381,0.01176298,0.00854266,0.00844026,0.00836057,0.00830102,0.01177043,0.01177049,0.01177049,0.01177061,0.01177067,0.01177067,0.01177073,0.01177073,0.01177085,0.01177001,0.01176876,0.01176745,0.01176608,0.01176471,0.01176804,0.01177275,0.01177752,0.01178223,0.01177991
0.01064724,0.01064724,0.01064730,0.01064742,0.01064748,0.01064748,0.01064754,0.01067096,0.01074064,0.01081914,0.01090407,0.01099044,0.01107872,0.01117152,0.01126593,0.01136190,0.01145953,0.01155883,0.01165992,0.01176274,0.01186735,0.01197386,0.07937110,0.07937110,0.07979769,0.08054471,0.08228690,0.08303625,0.07937110,0.07937110,0.07958949,0.01572299,0.01587957,0.01602823,0.01411629,0.01411629,0.01411641,0.01412940,0.08045590,0.09282160,0.01509559,0.01509559,0.01509571,0.01509762,0.01752174,0.01752174,0.01752174,0.01752174,0.01752174,0.01752174,0.01752174,0.01752174,0.01752156,0.01752156,0.01752156,0.01752156,0.01752156,0.01752156,0.01752156,0.01752156,0.01752156,0.01752156,0.01752156,0.01752138,0.01752085,0.01752049,0.01751989,0.01751936,0.01751900,0.01751900,0.01751882,0.01751882,0.01751882,0.01751882,0.01751882,0.01751882,0.01751882,0.01751882,0.01761240,0.01792616,0.01825380,0.01860893,0.01890820,0.01890844,0.01890844,0.01890844,0.01890862,0.01890862,0.01890862,0.01890886,0.01890886,0.01890886,0.01890904,0.01890904,0.01890904,0.01890928,0.01890928,0.01890928,0.01890946,0.01890946,0.01890946,0.01890946,0.01890969,0.01890969,0.01890993,0.01891011,0.01891011,0.01891035,0.01891053,0.01891053,0.01891077,0.01891095,0.01891095,0.01891118,0.01851606,0.01851606,0.01851630,0.01851630,0.01891118,0.01891095,0.01891095,0.01891095,0.01891077,0.01891077,0.01891077,0.01891053,0.01891053,0.01891035,0.01891035,0.01891035,0.01891011,0.01891011,0.01890993,0.01890993,0.01890993,0.01890969,0.01890969,0.01890946,0.01890946,0.01890946,0.01890928,0.01890928,0.01890904,0.01890904,0.01890904,0.01890886,0.01890886,0.01890862,0.01890862,0.01890862,0.01871562,0.01780647,0.01764798,0.01765025,0.01751644,0.01751644,0.01751644,0.01751644,0.01751626,0.01751626,0.01751626,0.01751626,0.01751608,0.01751608,0.01751608,0.01751608,0.01751608,0.01751590,0.01751590,0.00957954,0.00956613,0.00961334,0.01751572,0.01751572,0.01751590,0.01751590,0.01751590,0.01751608,0.01751608,0.01751608,0.01751626,0.01751626,0.01751626,0.01751644,0.01751644,0.01751644,0.01751644,0.01751661,0.01772970,0.01772970,0.01772988,0.01772988,0.01773006,0.01773006,0.01773006,0.01773024,0.01773024,0.01770926,0.01765448,0.01760006,0.01754594,0.01749218,0.01743853,0.01738536,0.01733255,0.01728010,0.01722795,0.01717609,0.01712453,0.01707310,0.01702219,0.01697159,0.01692122,0.01687121,0.01189530,0.01177901,0.01177597,0.01166350,0.01176614,0.01176059,0.01124114,0.01176143,0.01176417,0.01176679,0.01176876,0.01062656,0.01052278,0.01042003,0.01176894,0.01176900,0.01176912,0.01176912,0.01176912,0.01176918,0.01176822,0.01176685,0.00949872,0.01176417,0.01176286,0.01176721,0.00916278,0.01177657,0.01178086,0.01177788,0.00884706,0.00874156,0.01176298,0.01176214,0.00853753,0.01176500,0.01176769,0.01177007,0.00821644,0.01177019,0.01177025,0.01177037,0.01177037,0.00790763,0.01177043,0.00778389,0.00770909,0.00764704,0.00759721,0.01176715,0.01176578,0.01176441,0.01176769,0.01177251,0.01177722,0.01178193,0.01177967
0.01047790,0.01047790,0.01047796,0.01047802,0.01047802,0.01048571,0.01055282,0.01063699,0.01072252,0.01080942,0.01089776,0.01098752,0.01107884,0.01117164,0.01126599,0.01136190,0.01145953,0.01155883,0.01165980,0.01176268,0.01187027,0.01198226,0.01001185,0.01003558,0.01008415,0.08054084,0.08187330,0.01001382,0.07937110,0.01007354,0.01010495,0.08037109,0.08441926,0.01602823,0.01411593,0.01411593,0.01411605,0.01412916,0.01615948,0.01615948,0.01509518,0.01509529,0.01509529,0.01509732,0.01615948,0.01615948,0.01615948,0.01615948,0.01615948,0.01615900,0.01615852,0.01615822,0.01615793,0.01615793,0.01615793,0.01615793,0.01615793,0.01615775,0.01615775,0.01615775,0.01615775,0.01615775,0.01615775,0.01615775,0.01615757,0.01615757,0.01615757,0.01615757,0.01615757,0.01615745,0.01615745,0.01615745,0.01615745,0.01615745,0.01639795,0.01666939,0.01695901,0.01726514,0.01743835,0.01743835,0.01743853,0.01743853,0.01743853,0.01743871,0.01743871,0.01743871,0.01743871,0.01743889,0.01743889,0.01743889,0.01743907,0.01743907,0.01743907,0.01743925,0.01743925,0.01743943,0.01743960,0.01743960,0.01743978,0.01743996,0.01743996,0.01744014,0.01744032,0.01744032,0.01744050,0.01744068,0.01744050,0.01744032,0.01744014,0.01743996,0.01743960,0.01743943,0.01707608,0.01707625,0.01743889,0.01707643,0.01707643,0.01743853,0.01743853,0.01743853,0.01743835,0.01743835,0.01743817,0.01743817,0.01743800,0.01743800,0.01743776,0.01743776,0.01743776,0.01743758,0.01743758,0.01743740,0.01743740,0.01743722,0.01743722,0.01743722,0.01743704,0.01743704,0.01743686,0.01743686,0.01743668,0.01743668,0.01743668,0.01743651,0.01743651,0.01743633,0.01743633,0.01743615,0.01743615,0.01743615,0.01743597,0.01743597,0.01679927,0.01637173,0.01623750,0.01615542,0.01615542,0.01615524,0.01615524,0.01615524,0.01615524,0.01615524,0.01615512,0.01615512,0.01615512,0.01615512,0.01615512,0.01615495,0.01615495,0.00957900,0.00956404,0.00960678,0.01615477,0.01615477,0.01615477,0.01615477,0.01615465,0.01615465,0.01615465,0.01615465,0.01615465,0.01615447,0.01615447,0.01615447,0.01615465,0.01615465,0.01615465,0.01615477,0.01615477,0.01615477,0.01615495,0.01615495,0.01615495,0.01635289,0.01635254,0.01635242,0.01635224,0.01635206,0.01635194,0.01635176,0.01635158,0.01635128,0.01635110,0.01636595,0.01636005,0.01633042,0.01630092,0.01627165,0.01624239,0.01621318,0.01618409,0.01615512,0.01612622,0.01609743,0.01189530,0.01177877,0.01177573,0.01165974,0.01176524,0.01175976,0.01124281,0.01176119,0.01176381,0.01176655,0.01176846,0.01062936,0.01052392,0.01042122,0.01176870,0.01176876,0.01176876,0.01176888,0.01176888,0.01176888,0.01176792,0.01176661,0.00949758,0.01176393,0.01176250,0.01176685,0.00915760,0.01177627,0.01178056,0.01177752,0.00884187,0.00874150,0.01176214,0.01176125,0.00853235,0.01176471,0.01176739,0.00832886,0.00821835,0.01176995,0.01177001,0.01177001,0.01177007,0.00790763,0.01177019,0.01177019,0.00771505,0.01176953,0.00760126,0.01176685,0.01176548,0.01176417,0.01176739,0.01177216,0.01177687,0.00720888,0.00715774
0.01047760,0.01047760,0.01047772,0.01047778,0.01047778,0.01048547,0.01055288,0.01063705,0.01072258,0.01080948,0.01089776,0.01098913,0.01108497,0.01118243,0.01130593,0.01169616,0.01169622,0.01169723,0.01177895,0.00939679,0.00977975,0.00966853,0.00966698,0.00999856,0.00971294,0.00966227,0.01002991,0.01001406,0.01000780,0.01005286,0.01010400,0.01015228,0.01499385,0.01499373,0.01411557,0.01411557,0.01411569,0.01412892,0.01499307,0.01499307,0.01499307,0.01499307,0.01499307,0.01499289,0.01499289,0.01499289,0.01499289,0.01499289,0.01499277,0.01499277,0.01499277,0.01499277,0.01499277,0.01499266,0.01499266,0.01499266,0.01499266,0.01499266,0.01499254,0.01499254,0.01499254,0.01499254,0.01499254,0.01499236,0.01499236,0.01499236,0.01499236,0.01499236,0.01499236,0.01511002,0.01534015,0.01557791,0.01583582,0.01610255,0.01618034,0.01618052,0.01618052,0.01618052,0.01618064,0.01618064,0.01618064,0.01618081,0.01618081,0.01618081,0.01618099,0.01618099,0.01618111,0.01618129,0.01618129,0.01618141,0.01618159,0.01618159,0.01618177,0.01618159,0.01618141,0.01618129,0.01618111,0.01618099,0.01618081,0.01618064,0.01618064,0.01618064,0.01618064,0.01618064,0.01618052,0.01618052,0.01618052,0.01618052,0.01618052,0.01618052,0.01618052,0.01584405,0.01584405,0.01618034,0.01584417,0.01584435,0.01618034,0.01618052,0.01618052,0.01618052,0.01618064,0.01618064,0.01618064,0.01618064,0.01618081,0.01618081,0.01618081,0.01618099,0.01618099,0.01618099,0.01618111,0.01618111,0.01618111,0.01618111,0.01618129,0.01618129,0.01618129,0.01618141,0.01618141,0.01618141,0.01618159,0.01618159,0.01618159,0.01618159,0.01618177,0.01618177,0.01618177,0.01618189,0.01618189,0.01618177,0.01618177,0.01618159,0.01618159,0.01599830,0.01526755,0.01515079,0.01503593,0.01499051,0.01499051,0.01499051,0.01499051,0.01499051,0.01499039,0.01499039,0.01499039,0.01499039,0.01499027,0.01499027,0.01499027,0.00957847,0.00956202,0.00960022,0.01499009,0.01499009,0.01499009,0.01499009,0.01498997,0.01498997,0.01498997,0.01498997,0.01498997,0.01498985,0.01498985,0.01498985,0.01498985,0.01498985,0.01498973,0.01498973,0.01498973,0.01498973,0.01498956,0.01498956,0.01498956,0.01498956,0.01498973,0.01498973,0.01495457,0.01485002,0.01474691,0.01464534,0.01454502,0.01444608,0.01434857,0.01425231,0.01415742,0.01410359,0.01410359,0.01410359,0.01410347,0.01410347,0.01410347,0.01410347,0.01410347,0.01410347,0.01189530,0.01177841,0.01164162,0.01150405,0.01140237,0.01140243,0.01124448,0.01176083,0.01176357,0.01176620,0.01176822,0.01063222,0.01052511,0.01042235,0.01176834,0.01176846,0.01176852,0.01176852,0.01176858,0.01176858,0.01176763,0.01176632,0.00949860,0.01176357,0.01176214,0.01176661,0.00915659,0.01177597,0.01178026,0.01177728,0.00883675,0.00874138,0.01176137,0.01176041,0.00852722,0.01176441,0.01176715,0.00832373,0.00822026,0.01176959,0.01176965,0.01176977,0.01176977,0.00790846,0.01176995,0.01176995,0.00771284,0.01176930,0.00760120,0.01176655,0.01176524,0.01176381,0.01176715,0.00731224,0.01177657,0.00720465,0.01177913
0.01049596,0.01049602,0.01049614,0.01049614,0.01049620,0.01050168,0.00864017,0.00893116,0.00870639,0.00900763,0.00897956,0.00889671,0.00900465,0.01169586,0.01169586,0.01169592,0.01169598,0.01169700,0.00935608,0.00939673,0.00955999,0.00938660,0.00945646,0.00956309,0.00966358,0.00966203,0.01011062,0.01001418,0.01001078,0.01005238,0.01010305,0.01014358,0.01398462,0.01398462,0.01398462,0.01398462,0.01398462,0.01398450,0.01398450,0.01398450,0.01398450,0.01398450,0.01398438,0.01398438,0.01398438,0.01398438,0.01398438,0.01398426,0.01398426,0.01398426,0.01398426,0.01398414,0.01398414,0.01398414,0.01398414,0.01398414,0.01398403,0.01398403,0.01398403,0.01398403,0.01398403,0.01398391,0.01402086,0.01398403,0.01400954,0.01420724,0.01441056,0.01462513,0.01485223,0.01508647,0.01509178,0.01509178,0.01509190,0.01509190,0.01509190,0.01509208,0.01509208,0.01509219,0.01509231,0.01509231,0.01509231,0.01509219,0.01509208,0.01509190,0.01509190,0.01509178,0.01509178,0.01509178,0.01509178,0.01509178,0.01509178,0.01509178,0.01509178,0.01509178,0.01509166,0.01509166,0.01509166,0.01509166,0.01509166,0.01509166,0.01509166,0.01509166,0.01509166,0.01509148,0.01509148,0.01509148,0.01509148,0.01509148,0.01509148,0.01477766,0.01477778,0.01509148,0.01477790,0.01477790,0.01509339,0.01509339,0.01509327,0.01509327,0.01509315,0.01509315,0.01509303,0.01509303,0.01509285,0.01509285,0.01509273,0.01509273,0.01509261,0.01509261,0.01509243,0.01509243,0.01509231,0.01509231,0.01509219,0.01509219,0.01509208,0.01509208,0.01509190,0.01509190,0.01509178,0.01509178,0.01509166,0.01509166,0.01509166,0.01509148,0.01509148,0.01509136,0.01509136,0.01509124,0.01509124,0.01509112,0.01509112,0.01509094,0.01509094,0.01509094,0.01509094,0.01457697,0.01420039,0.01409936,0.01399982,0.01398242,0.01398242,0.01398230,0.01398230,0.01398230,0.01398230,0.01398230,0.01398218,0.01398218,0.01398218,0.00957793,0.00956005,0.00959373,0.01398206,0.01398206,0.01398206,0.01398206,0.01398194,0.01398194,0.01398194,0.01398194,0.01398182,0.01398182,0.01398182,0.01398182,0.01398182,0.01398170,0.01398170,0.01398170,0.01398170,0.01398170,0.01398158,0.01398158,0.01398158,0.01398158,0.01398158,0.01398146,0.01398146,0.01398146,0.01398146,0.01398146,0.01398134,0.01391077,0.01382023,0.01373088,0.01364279,0.01355571,0.01346982,0.01338506,0.01330131,0.01321864,0.01313698,0.01315469,0.01315469,0.01315469,0.01189530,0.01177818,0.01168865,0.01155049,0.01141560,0.01128382,0.01115507,0.01098466,0.01086211,0.01074231,0.01063556,0.01063496,0.01052630,0.01042354,0.01176810,0.01176822,0.01176822,0.01176828,0.01176828,0.01176834,0.01176739,0.01176608,0.00949955,0.01176322,0.01176190,0.01176632,0.00915790,0.01177561,0.01178002,0.01177687,0.00883192,0.00874132,0.01176053,0.01175952,0.00852406,0.01176417,0.01176679,0.00831860,0.00822228,0.01176936,0.01176941,0.01176941,0.01176953,0.00790930,0.01176959,0.01176965,0.00771356,0.01176894,0.00760144,0.01176632,0.01176488,0.01176351,0.01176679,0.00731248,0.01177627,0.00720042,0.01177883
0.01203317,0.06674391,0.01071626,0.01071638,0.00856531,0.00850666,0.00857216,0.01074553,0.00870615,0.00864530,0.00872469,0.00871533,0.00896996,0.00891298,0.00882012,0.00891209,0.01169568,0.01169682,0.01177895,0.00939685,0.00942302,0.00938571,0.00945628,0.00946009,0.00966334,0.00966179,0.01011044,0.01001436,0.01001364,0.01005191,0.01010215,0.01014340,0.01024693,0.01310313,0.01310313,0.01310301,0.01310301,0.01310301,0.01310301,0.01310301,0.01310289,0.01310289,0.01310289,0.01310289,0.01310289,0.01310283,0.01310283,0.01310283,0.01310283,0.01310283,0.01310271,0.01310271,0.01310271,0.01310271,0.01310271,0.01310259,0.01310259,0.01310259,0.01310241,0.01310247,0.01323009,0.01340634,0.01358724,0.01378208,0.01398361,0.01414031,0.01414043,0.01414031,0.01414031,0.01414031,0.01414031,0.01414031,0.01414031,0.01414031,0.01414019,0.01414019,0.01414019,0.01414019,0.01414019,0.01414019,0.01414019,0.01414019,0.01414019,0.01414007,0.01414007,0.01414007,0.01414007,0.01414007,0.01414007,0.01414007,0.01414007,0.01414007,0.01413995,0.01413995,0.01413995,0.01413995,0.01413995,0.01413995,0.01413995,0.01413995,0.01413995,0.01413983,0.01413983,0.01413983,0.01413983,0.01413983,0.01413983,0.01413983,0.01384682,0.01384693,0.01413971,0.01384705,0.01384717,0.01413995,0.01413995,0.01413983,0.01413983,0.01413971,0.01413971,0.01413971,0.01413959,0.01413959,0.01413959,0.01413959,0.01413959,0.01413959,0.01413959,0.01413959,0.01413947,0.01413947,0.01413947,0.01413947,0.01413947,0.01413947,0.01413947,0.01413936,0.01413936,0.01413936,0.01413936,0.01413936,0.01413936,0.01413936,0.01413924,0.01413924,0.01413924,0.01413924,0.01413924,0.01413924,0.01413924,0.01413912,0.01413912,0.01413912,0.01413912,0.01413912,0.01413912,0.01413912,0.01397008,0.01336682,0.01326925,0.01322788,0.01316571,0.01310086,0.01310074,0.01310074,0.01310074,0.01310074,0.01310074,0.01310062,0.00965458,0.00957745,0.00955826,0.00958932,0.01310057,0.01310057,0.01310057,0.01310057,0.01310045,0.01310045,0.01310045,0.01310045,0.01310045,0.01310033,0.01310033,0.01310033,0.01310033,0.01310033,0.01310027,0.01310027,0.01310027,0.01310027,0.01310027,0.01310015,0.01310015,0.01310015,0.01310015,0.01310015,0.01310003,0.01310003,0.01310003,0.01310003,0.01309991,0.01309991,0.01309991,0.01309991,0.01309991,0.01308328,0.01300317,0.01292402,0.01284599,0.01276881,0.01269263,0.01261729,0.01254278,0.01246923,0.01189536,0.01177788,0.01168865,0.01155055,0.01141560,0.01128382,0.01115501,0.01102912,0.01090604,0.01078576,0.01066798,0.01055282,0.01044005,0.01028800,0.01018047,0.01007515,0.00997192,0.00996548,0.00996548,0.01176804,0.01176715,0.01176572,0.00950056,0.01176298,0.01176161,0.01176596,0.00915915,0.01177538,0.01177979,0.01177603,0.00883305,0.00874120,0.01175970,0.01175869,0.00852519,0.01176381,0.01176655,0.00831354,0.00822419,0.01176912,0.01176912,0.01176918,0.01176930,0.00791013,0.01176936,0.01176936,0.00771427,0.01176870,0.00760227,0.01176596,0.01176459,0.01176322,0.01176643,0.00731272,0.01177597,0.00720143,0.01177818
0.01203317,0.00803626,0.00812435,0.00851739,0.00856954,0.00850660,0.00857198,0.00863850,0.00864649,0.00864512,0.00872451,0.00871521,0.00878513,0.00881052,0.00881988,0.00882924,0.01169533,0.01169664,0.00961602,0.00939691,0.00942349,0.00938481,0.00945604,0.00945985,0.00966305,0.00966150,0.01002973,0.01001447,0.01001585,0.01005149,0.01010162,0.01014316,0.01232606,0.01232606,0.01232606,0.01232606,0.01232606,0.01232606,0.01232606,0.01232594,0.01232594,0.01232594,0.01232594,0.01232594,0.01232588,0.01232588,0.01232588,0.01232588,0.01232588,0.01232576,0.01232576,0.01232576,0.01232576,0.01232541,0.01232541,0.01237881,0.01253295,0.01269090,0.01285583,0.01303095,0.01321095,0.01330197,0.01330197,0.01330185,0.01330185,0.01330185,0.01330185,0.01330185,0.01330185,0.01330185,0.01330185,0.01330185,0.01330173,0.01330173,0.01330173,0.01330173,0.01330173,0.01330173,0.01330173,0.01330173,0.01330173,0.01330161,0.01330161,0.01330161,0.01330161,0.01330161,0.01330161,0.01330161,0.01330161,0.01330161,0.01330155,0.01330155,0.01330155,0.01330155,0.01330155,0.01330155,0.01330155,0.01330155,0.01330155,0.01330143,0.01330143,0.01330143,0.01330143,0.01330143,0.01330143,0.01330143,0.01302570,0.01302576,0.01330143,0.01302588,0.01302600,0.01302600,0.01330131,0.01330131,0.01330131,0.01330119,0.01330119,0.01330119,0.01330119,0.01330119,0.01330119,0.01330119,0.01330113,0.01330113,0.01330113,0.01330113,0.01330113,0.01330113,0.01330113,0.01330102,0.01330102,0.01330102,0.01330102,0.01330102,0.01330102,0.01330102,0.01330102,0.01330102,0.01330102,0.01330102,0.01330102,0.01330102,0.01330102,0.01330102,0.01330102,0.01330102,0.01330102,0.01330102,0.01330102,0.01330102,0.01330102,0.01330102,0.01330102,0.01330102,0.01330102,0.01330102,0.01330102,0.01330113,0.01285464,0.01250303,0.01245922,0.01242280,0.01232386,0.01232380,0.01232380,0.01232380,0.01232380,0.01232368,0.00965011,0.00957692,0.00955641,0.00958735,0.01232362,0.01232362,0.01232362,0.01232362,0.01232350,0.01232350,0.01232350,0.01232350,0.01232350,0.01232344,0.01232344,0.01232344,0.01232344,0.01232344,0.01232332,0.01232332,0.01232332,0.01232332,0.01232320,0.01232320,0.01232320,0.01232320,0.01232320,0.01232314,0.01232314,0.01232314,0.01232314,0.01232314,0.01232302,0.01232302,0.01232302,0.01232302,0.01232302,0.01232296,0.01232296,0.01232296,0.01232296,0.01232284,0.01227731,0.01220685,0.01213718,0.01206821,0.01189536,0.01177764,0.01168865,0.01155055,0.01141560,0.01128382,0.01115501,0.01102907,0.01090604,0.01078564,0.01066798,0.01055276,0.01044005,0.01032972,0.01022172,0.01011586,0.01001227,0.00991076,0.00981128,0.00967449,0.00957930,0.00948596,0.00939435,0.00937384,0.00937390,0.00937396,0.00916040,0.01177508,0.01177943,0.01177520,0.00883430,0.00874114,0.01175886,0.01175815,0.00852627,0.01176357,0.01176620,0.00831276,0.00822610,0.01176876,0.01176888,0.01176888,0.01176894,0.00791091,0.01176900,0.01176912,0.00771493,0.01176846,0.00760305,0.01176572,0.01176429,0.01176292,0.01176614,0.00731295,0.01177561,0.00720304,0.01177746
0.00803918,0.00803608,0.00803292,0.00815326,0.00856936,0.00850654,0.00857186,0.00863826,0.00864625,0.00864488,0.00864345,0.00871521,0.00878477,0.00881034,0.00881970,0.00882906,0.01163608,0.01163608,0.00935626,0.00933123,0.00942421,0.00938386,0.00945586,0.00945967,0.00966281,0.00966126,0.00995648,0.01001459,0.01001740,0.01005107,0.01001602,0.01014286,0.01054615,0.01054615,0.01054621,0.01054525,0.01054418,0.01163590,0.01163590,0.01163590,0.01163590,0.01163590,0.01163590,0.01163590,0.01163590,0.01163590,0.01163590,0.01163578,0.01163530,0.01163530,0.01163542,0.01176632,0.01190549,0.01204801,0.01219982,0.01235747,0.01251918,0.01255745,0.01255745,0.01255745,0.01255745,0.01255745,0.01255745,0.01255733,0.01255733,0.01255733,0.01255733,0.01255733,0.01255733,0.01255733,0.01255733,0.01255733,0.01255721,0.01255721,0.01255721,0.01255721,0.01255721,0.01255721,0.01255721,0.01255721,0.01255721,0.01255715,0.01255715,0.01255715,0.01255715,0.01255715,0.01255715,0.01255715,0.01255715,0.01255703,0.01255703,0.01255703,0.01255703,0.01255703,0.01255703,0.01255703,0.01255703,0.01255703,0.01255697,0.01255697,0.01255697,0.01255697,0.01255703,0.01255703,0.01255703,0.01229656,0.01229656,0.01255703,0.01229674,0.01229674,0.01255703,0.01255703,0.01255703,0.01255703,0.01255703,0.01255703,0.01255703,0.01255703,0.01255703,0.01255703,0.01255703,0.01255703,0.01255703,0.01255703,0.01255703,0.01255703,0.01255703,0.01255703,0.01255703,0.01255703,0.01255703,0.01255703,0.01255703,0.01255703,0.01255703,0.01255703,0.01255703,0.01255703,0.01255703,0.01255703,0.01255703,0.01255703,0.01255703,0.01255703,0.01255703,0.01255703,0.01255703,0.01255703,0.01255703,0.01255703,0.01255703,0.01255703,0.01255703,0.01255703,0.01255703,0.01255703,0.01255703,0.01255697,0.01255703,0.01238096,0.01191884,0.01177627,0.01174241,0.01171005,0.01163381,0.01163381,0.01163381,0.01163369,0.00964564,0.00957638,0.00955463,0.00958544,0.01163364,0.01163364,0.01163364,0.01163364,0.01163358,0.01163358,0.01163358,0.01163358,0.01163346,0.01163346,0.01163346,0.01163346,0.01163346,0.01163340,0.01163340,0.01163340,0.01163340,0.01163340,0.01163334,0.01163334,0.01163334,0.01163334,0.01163334,0.01163322,0.01163322,0.01163322,0.01163322,0.01163316,0.01163316,0.01163316,0.01163316,0.01163316,0.01163304,0.01163304,0.01163304,0.01163304,0.01163304,0.01163298,0.01163298,0.01163298,0.01163298,0.01163298,0.01163292,0.01163292,0.01163292,0.01155055,0.01141560,0.01128382,0.01115501,0.01102912,0.01090604,0.01078564,0.01066792,0.01055276,0.01043999,0.01032972,0.01022166,0.01011586,0.01001221,0.00991076,0.00981122,0.00971377,0.00961816,0.00952441,0.00943244,0.00934225,0.00925380,0.00913018,0.00904530,0.00896192,0.00888014,0.00884897,0.00883550,0.00874108,0.01126146,0.01123244,0.00852740,0.00843555,0.01114625,0.00831389,0.00822806,0.01106131,0.00811195,0.01100534,0.01097763,0.00791168,0.01092261,0.01089519,0.00771564,0.01084101,0.00760382,0.01079059,0.01079708,0.01080358,0.01081008,0.00731319,0.01087844,0.00720465,0.01124841
0.00789517,0.00803584,0.00803268,0.00815326,0.00856912,0.00850648,0.00857180,0.00863808,0.00864601,0.00864464,0.00864321,0.00871527,0.00878435,0.00881016,0.00881952,0.00882882,0.01101905,0.01101905,0.00935656,0.00933224,0.00942481,0.00938284,0.00945568,0.00945944,0.00966257,0.00966108,0.00995654,0.01001453,0.01001871,0.00998670,0.00998664,0.01001006,0.01009548,0.01019704,0.01030064,0.01040614,0.01051414,0.01101899,0.01101899,0.01101887,0.01101869,0.01101863,0.01101852,0.01104266,0.01101852,0.01101857,0.01108813,0.01121163,0.01133788,0.01146835,0.01160753,0.01175016,0.01189190,0.01189184,0.01189184,0.01189184,0.01189184,0.01189184,0.01189184,0.01189184,0.01189184,0.01189184,0.01189172,0.01189172,0.01189172,0.01189172,0.01189172,0.01189172,0.01189172,0.01189172,0.01189172,0.01189166,0.01189166,0.01189166,0.01189166,0.01189166,0.01189166,0.01189166,0.01189166,0.01189166,0.01189154,0.01189154,0.01189154,0.01189154,0.01189154,0.01189154,0.01189154,0.01189154,0.01189154,0.01189148,0.01189148,0.01189148,0.01189148,0.01189148,0.01189148,0.01189148,0.01189148,0.01189148,0.01189148,0.01189148,0.01189148,0.01189148,0.01189148,0.01164460,0.01164472,0.01189154,0.01189154,0.01164484,0.01164496,0.01189226,0.01189226,0.01189226,0.01189226,0.01189226,0.01189226,0.01189226,0.01189226,0.01189226,0.01189226,0.01189226,0.01189226,0.01189226,0.01189226,0.01189226,0.01189226,0.01189226,0.01189226,0.01189226,0.01189226,0.01189226,0.01189226,0.01189214,0.01189214,0.01189214,0.01189214,0.01189214,0.01189214,0.01189214,0.01189214,0.01189214,0.01189208,0.01189208,0.01189208,0.01189208,0.01189208,0.01189208,0.01189208,0.01189208,0.01189208,0.01189196,0.01189196,0.01189196,0.01189196,0.01189196,0.01189196,0.01189196,0.01189196,0.01189196,0.01189190,0.01189190,0.01189196,0.01150960,0.01119220,0.01113278,0.01110357,0.01107466,0.01101697,0.01101691,0.00964296,0.00957584,0.00955278,0.00958347,0.01101685,0.01101685,0.01101685,0.01101685,0.01101679,0.01101679,0.01101679,0.01101679,0.01101667,0.01101667,0.01101667,0.01101667,0.01101667,0.01101661,0.01101661,0.01101661,0.01101661,0.01101655,0.01101655,0.01101655,0.01101655,0.01101655,0.01101649,0.01101649,0.01101649,0.01101649,0.01101649,0.01101637,0.01101637,0.01101637,0.01101637,0.01101637,0.01101631,0.01101631,0.01101631,0.01101631,0.01101631,0.01101625,0.01101625,0.01101625,0.01101625,0.01101619,0.01101619,0.01101619,0.01101619,0.01101619,0.01101613,0.01101613,0.01101613,0.01102912,0.01090604,0.01078564,0.01066792,0.01055270,0.01043999,0.01032966,0.01022166,0.01011580,0.01001221,0.00991070,0.00981122,0.00971371,0.00961810,0.00952441,0.00943244,0.00934225,0.00925380,0.00916702,0.00908178,0.00899816,0.00891608,0.00883550,0.00875634,0.00864369,0.00856757,0.00849277,0.00841934,0.00838006,0.00837964,0.00831497,0.00823003,0.01064760,0.00811279,0.01059574,0.01057005,0.00791252,0.01051897,0.01049364,0.00771630,0.01044333,0.00760460,0.01040077,0.01037979,0.01035893,0.01033807,0.00731349,0.01029670,0.00720626,0.01025564
0.00789517,0.00791735,0.00803244,0.00815326,0.00856441,0.00850636,0.00857168,0.00863797,0.00864583,0.00864440,0.00864297,0.00871521,0.00878394,0.00880992,0.00881928,0.00882864,0.00952303,0.00959760,0.00935680,0.00933313,0.00942534,0.00938183,0.00945544,0.00945926,0.00948358,0.00948352,0.00953263,0.00961655,0.00970864,0.00980252,0.00989831,0.00999588,0.01009542,0.01019704,0.01030064,0.01040614,0.01046336,0.01046324,0.01046312,0.01046372,0.01046377,0.01048380,0.01059413,0.01070684,0.01082200,0.01094347,0.01107013,0.01119971,0.01129329,0.01129329,0.01129329,0.01129329,0.01129323,0.01129323,0.01129323,0.01129323,0.01129323,0.01129323,0.01129323,0.01129323,0.01129323,0.01129311,0.01129311,0.01129311,0.01129311,0.01129311,0.01129311,0.01129311,0.01129311,0.01129311,0.01129305,0.01129305,0.01129305,0.01129305,0.01129305,0.01129305,0.01129305,0.01129305,0.01129305,0.01129299,0.01129299,0.01129299,0.01129299,0.01129299,0.01129299,0.01129299,0.01129299,0.01129299,0.01129299,0.01129299,0.01129299,0.01129299,0.01129299,0.01129299,0.01129299,0.01129299,0.01129299,0.01129299,0.01129299,0.01129299,0.01129299,0.01105845,0.01105845,0.01105845,0.01129299,0.01105857,0.01105869,0.01105869,0.01129383,0.01129383,0.01129383,0.01129383,0.01129383,0.01129383,0.01129383,0.01129377,0.01129377,0.01129377,0.01129377,0.01129377,0.01129377,0.01129377,0.01129377,0.01129377,0.01129365,0.01129365,0.01129365,0.01129365,0.01129365,0.01129365,0.01129365,0.01129365,0.01129365,0.01129365,0.01129359,0.01129359,0.01129359,0.01129359,0.01129359,0.01129359,0.01129359,0.01129359,0.01129359,0.01129353,0.01129353,0.01129353,0.01129353,0.01129353,0.01129353,0.01129353,0.01129347,0.01129347,0.01129347,0.01129347,0.01129347,0.01129335,0.01129335,0.01129335,0.01129335,0.01129329,0.01129329,0.01129335,0.01112747,0.01075387,0.01060629,0.01055694,0.01053077,0.01050735,0.00964230,0.00957531,0.00955099,0.00958157,0.01046217,0.01046217,0.01046217,0.01046217,0.01046211,0.01046211,0.01046211,0.01046211,0.01046211,0.01046199,0.01046199,0.01046199,0.01046199,0.01046193,0.01046193,0.01046193,0.01046193,0.01046187,0.01046187,0.01046187,0.01046187,0.01046187,0.01046181,0.01046181,0.01046181,0.01046181,0.01046181,0.01046175,0.01046175,0.01046175,0.01046175,0.01046169,0.01046169,0.01046169,0.01046169,0.01046169,0.01046163,0.01046163,0.01046163,0.01046163,0.01046163,0.01046157,0.01046157,0.01046157,0.01046157,0.01046157,0.01046151,0.01046151,0.01046151,0.01046151,0.01046145,0.01046145,0.01046145,0.01046145,0.01043999,0.01032966,0.01022160,0.01011580,0.01001215,0.00991070,0.00981116,0.00971371,0.00961810,0.00952441,0.00943250,0.00934231,0.00925380,0.00916702,0.00908178,0.00899816,0.00891608,0.00883544,0.00875634,0.00867856,0.00860214,0.00852710,0.00845337,0.00838083,0.00830960,0.00820643,0.00813776,0.00807029,0.00800395,0.00795829,0.00795794,0.00791335,0.00795770,0.01016837,0.00771701,0.01012832,0.00760537,0.01008862,0.00749946,0.01004922,0.01002967,0.00731373,0.00999063,0.00720787,0.00995201
0.00782526,0.00791729,0.00803226,0.00815338,0.00856417,0.00850642,0.00857151,0.00858766,0.00864565,0.00864422,0.00864279,0.00871521,0.00878352,0.00880975,0.00881910,0.00882852,0.00951511,0.00931662,0.00902927,0.00902927,0.00903457,0.00909853,0.00918084,0.00926483,0.00935030,0.00943738,0.00952613,0.00961649,0.00970858,0.00980252,0.00989825,0.00996172,0.00996178,0.00996178,0.00996214,0.00996220,0.00996226,0.01004118,0.01014239,0.01024556,0.01035124,0.01046449,0.01058024,0.01069856,0.01075208,0.01075208,0.01075208,0.01075208,0.01075208,0.01075208,0.01075208,0.01075208,0.01075202,0.01075202,0.01075202,0.01075202,0.01075202,0.01075202,0.01075202,0.01075202,0.01075202,0.01075190,0.01075190,0.01075190,0.01075190,0.01075190,0.01075190,0.01075190,0.01075190,0.01075184,0.01075184,0.01075184,0.01075184,0.01075184,0.01075184,0.01075184,0.01075184,0.01075184,0.01075178,0.01075178,0.01075178,0.01075178,0.01075178,0.01075178,0.01075178,0.01075178,0.01075184,0.01075184,0.01075184,0.01075184,0.01075184,0.01075184,0.01075184,0.01075184,0.01075184,0.01075184,0.01075184,0.01075184,0.01075184,0.01075184,0.01052839,0.01052839,0.01075184,0.01075184,0.01052857,0.01052857,0.01075220,0.01075220,0.01075220,0.01075214,0.01075214,0.01075214,0.01075214,0.01075214,0.01075214,0.01075214,0.01075214,0.01075214,0.01075208,0.01075208,0.01075208,0.01075208,0.01075208,0.01075208,0.01075208,0.01075202,0.01075202,0.01075202,0.01075202,0.01075190,0.01075190,0.01075190,0.01075190,0.01075184,0.01075184,0.01075184,0.01075184,0.01075184,0.01075178,0.01075178,0.01075178,0.01075178,0.01075172,0.01075172,0.01075172,0.01075172,0.01075167,0.01075167,0.01075167,0.01075167,0.01075161,0.01075161,0.01075161,0.01075161,0.01075161,0.01075149,0.01075149,0.01075149,0.01075149,0.01075143,0.01075143,0.01075143,0.01075143,0.01075149,0.01041961,0.01013011,0.01007867,0.01003772,0.00964165,0.00957477,0.00954920,0.00957960,0.00996065,0.00996065,0.00996065,0.00996065,0.00996059,0.00996059,0.00996059,0.00996059,0.00996059,0.00996053,0.00996053,0.00996053,0.00996053,0.00996047,0.00996047,0.00996047,0.00996047,0.00996041,0.00996041,0.00996041,0.00996041,0.00996041,0.00996035,0.00996035,0.00996035,0.00996035,0.00996029,0.00996029,0.00996029,0.00996029,0.00996029,0.00996023,0.00996023,0.00996023,0.00996023,0.00996023,0.00996018,0.00996018,0.00996018,0.00996018,0.00996012,0.00996012,0.00996012,0.00996012,0.00996012,0.00996006,0.00996006,0.00996006,0.00996006,0.00996006,0.00996000,0.00996000,0.00996000,0.00996000,0.00996000,0.00995994,0.00995994,0.00995994,0.00995994,0.00991064,0.00981116,0.00971365,0.00961810,0.00952435,0.00943250,0.00934231,0.00925380,0.00916708,0.00908184,0.00899822,0.00891614,0.00883550,0.00875634,0.00867856,0.00860214,0.00852710,0.00845337,0.00838083,0.00830960,0.00823951,0.00817066,0.00810289,0.00803626,0.00797075,0.00790626,0.00781125,0.00774902,0.00768787,0.00762767,0.00757700,0.00757664,0.00757635,0.00749779,0.00975752,0.00973904,0.00731397,0.00970227,0.00720948,0.00966585
0.00782508,0.00791705,0.00803202,0.00815338,0.00856394,0.00850678,0.00857139,0.00858736,0.00864542,0.00864399,0.00864255,0.00871551,0.00878310,0.00861615,0.00861615,0.00864369,0.00870752,0.00878298,0.00885975,0.00893790,0.00901741,0.00909835,0.00918078,0.00926477,0.00935024,0.00943732,0.00950629,0.00950629,0.00950635,0.00950646,0.00950646,0.00950652,0.00954300,0.00963438,0.00972748,0.00982243,0.00992167,0.01002568,0.01013190,0.01024038,0.01026040,0.01026040,0.01026034,0.01026034,0.01026034,0.01026034,0.01026034,0.01026034,0.01026034,0.01026034,0.01026034,0.01026028,0.01026028,0.01026028,0.01026028,0.01026028,0.01026028,0.01026028,0.01026028,0.01026028,0.01026022,0.01026022,0.01026022,0.01026022,0.01026022,0.01026022,0.01026022,0.01026022,0.01026022,0.01026017,0.01026017,0.01026017,0.01026017,0.01026017,0.01026017,0.01026017,0.01026017,0.01026017,0.01026017,0.01026017,0.01026017,0.01026017,0.01026017,0.01026017,0.01026017,0.01026017,0.01026017,0.01026022,0.01026022,0.01026022,0.01026022,0.01026022,0.01026022,0.01026022,0.01026022,0.01026022,0.01026022,0.01026022,0.01004690,0.01004684,0.01004684,0.01026022,0.01026028,0.01004702,0.01004708,0.01026022,0.01026022,0.01026022,0.01026017,0.01026017,0.01026017,0.01026017,0.01026011,0.01026011,0.01026011,0.01026011,0.01026005,0.01026005,0.01026005,0.01026005,0.01025999,0.01025999,0.01025999,0.01025999,0.01025999,0.01025993,0.01025993,0.01025993,0.01025993,0.01025987,0.01025987,0.01025987,0.01025987,0.01025975,0.01025975,0.01025975,0.01025975,0.01025969,0.01025969,0.01025969,0.01025969,0.01025969,0.01025963,0.01025963,0.01025963,0.01025963,0.01025957,0.01025957,0.01025957,0.01025957,0.01025951,0.01025951,0.01025951,0.01025951,0.01025945,0.01025945,0.01025945,0.01025945,0.01025939,0.01025939,0.01025939,0.01025933,0.01025933,0.01025927,0.01025933,0.01010549,0.00979638,0.00964779,0.00960112,0.00956720,0.00954574,0.00950503,0.00950503,0.00950503,0.00950503,0.00950503,0.00950503,0.00950497,0.00950497,0.00950497,0.00950497,0.00950491,0.00950491,0.00950491,0.00950491,0.00950486,0.00950486,0.00950486,0.00950486,0.00950486,0.00950480,0.00950480,0.00950480,0.00950480,0.00950474,0.00950474,0.00950474,0.00950474,0.00950468,0.00950468,0.00950468,0.00950468,0.00950468,0.00950462,0.00950462,0.00950462,0.00950462,0.00950456,0.00950456,0.00950456,0.00950456,0.00950456,0.00950450,0.00950450,0.00950450,0.00950450,0.00950450,0.00950450,0.00950450,0.00950450,0.00950450,0.00950450,0.00950444,0.00950444,0.00950444,0.00950444,0.00950438,0.00950438,0.00950438,0.00950438,0.00950438,0.00950432,0.00950432,0.00950432,0.00950432,0.00952435,0.00943255,0.00934237,0.00925386,0.00916708,0.00908184,0.00899822,0.00891614,0.00883550,0.00875634,0.00867856,0.00860214,0.00852710,0.00845337,0.00838083,0.00830954,0.00823951,0.00817066,0.00810289,0.00803626,0.00797075,0.00790626,0.00784278,0.00778037,0.00771892,0.00765842,0.00759888,0.00754023,0.00745243,0.00739580,0.00734007,0.00728512,0.00723106,0.00723028,0.00721109,0.00722969
0.00782490,0.00791681,0.00803185,0.00815338,0.00856376,0.00850707,0.00857174,0.00823885,0.00823891,0.00823891,0.00828528,0.00834894,0.00841820,0.00848872,0.00856042,0.00863332,0.00870746,0.00878292,0.00885969,0.00893784,0.00901735,0.00909066,0.00909072,0.00909072,0.00910622,0.00909060,0.00909066,0.00909197,0.00917488,0.00925928,0.00934529,0.00943279,0.00952637,0.00962222,0.00971997,0.00981170,0.00981170,0.00981170,0.00981170,0.00981170,0.00981170,0.00981164,0.00981164,0.00981164,0.00981164,0.00981164,0.00981164,0.00981164,0.00981164,0.00981164,0.00981158,0.00981158,0.00981158,0.00981158,0.00981158,0.00981158,0.00981158,0.00981158,0.00981158,0.00981152,0.00981152,0.00981152,0.00981152,0.00981152,0.00981152,0.00981152,0.00981152,0.00981152,0.00981152,0.00981152,0.00981152,0.00981152,0.00981152,0.00981152,0.00981152,0.00981152,0.00981152,0.00981152,0.00981152,0.00981152,0.00981152,0.00981152,0.00981152,0.00981152,0.00981152,0.00981152,0.00981152,0.00981152,0.00981152,0.00981158,0.00981158,0.00981158,0.00981158,0.00981158,0.00981158,0.00981164,0.00981164,0.00960743,0.00960738,0.00981170,0.00981170,0.00960755,0.00960761,0.00960767,0.00981170,0.00981170,0.00981164,0.00981164,0.00981164,0.00981164,0.00981158,0.00981158,0.00981158,0.00981158,0.00981152,0.00981152,0.00981152,0.00981152,0.00981146,0.00981146,0.00981146,0.00981146,0.00981140,0.00981140,0.00981140,0.00981140,0.00981140,0.00981134,0.00981134,0.00981134,0.00981134,0.00981128,0.00981128,0.00981128,0.00981122,0.00981122,0.00981122,0.00981116,0.00981116,0.00981116,0.00981110,0.00981110,0.00981104,0.00981104,0.00981104,0.00981098,0.00981098,0.00981098,0.00981093,0.00981093,0.00981087,0.00981087,0.00981087,0.00981081,0.00981081,0.00981075,0.00981075,0.00981075,0.00981069,0.00981069,0.00981069,0.00981063,0.00981063,0.00981057,0.00981057,0.00981057,0.00980973,0.00951821,0.00925213,0.00920922,0.00916678,0.00913882,0.00911921,0.00908923,0.00908923,0.00908923,0.00908923,0.00908917,0.00908917,0.00908917,0.00908917,0.00908911,0.00908911,0.00908911,0.00908911,0.00908911,0.00908911,0.00908911,0.00908911,0.00908911,0.00908905,0.00908905,0.00908905,0.00908905,0.00908899,0.00908899,0.00908899,0.00908899,0.00908899,0.00908893,0.00908893,0.00908893,0.00908893,0.00908887,0.00908887,0.00908887,0.00908887,0.00908881,0.00908881,0.00908881,0.00908881,0.00908881,0.00908881,0.00908881,0.00908881,0.00908881,0.00908876,0.00908876,0.00908876,0.00908876,0.00908876,0.00908870,0.00908870,0.00908870,0.00908870,0.00908870,0.00908864,0.00908864,0.00908864,0.00908864,0.00908864,0.00908858,0.00908858,0.00908858,0.00908858,0.00908858,0.00908858,0.00908858,0.00908858,0.00908858,0.00908184,0.00899828,0.00891614,0.00883555,0.00875634,0.00867862,0.00860220,0.00852710,0.00845337,0.00838083,0.00830954,0.00823951,0.00817066,0.00810289,0.00803626,0.00797075,0.00790626,0.00784278,0.00778037,0.00771892,0.00765842,0.00759888,0.00754023,0.00748253,0.00742567,0.00736964,0.00731450,0.00726014,0.00720662,0.00712508,0.00707334
0.00782472,0.00791663,0.00789368,0.00789368,0.00790650,0.00795573,0.00801867,0.00808257,0.00814754,0.00821358,0.00828064,0.00834882,0.00841820,0.00848866,0.00856036,0.00863326,0.00870991,0.00870991,0.00870997,0.00870997,0.00870967,0.00870973,0.00870979,0.00875717,0.00883406,0.00891227,0.00899190,0.00907445,0.00916135,0.00924993,0.00934029,0.00940061,0.00940055,0.00940055,0.00940055,0.00940055,0.00940055,0.00940055,0.00940055,0.00940055,0.00940055,0.00940049,0.00940049,0.00940049,0.00940049,0.00940049,0.00940049,0.00940049,0.00940049,0.00940049,0.00940049,0.00940049,0.00940049,0.00940049,0.00940049,0.00940049,0.00940049,0.00940049,0.00940043,0.00940043,0.00940043,0.00940043,0.00940043,0.00940043,0.00940043,0.00940043,0.00940043,0.00940043,0.00940043,0.00940049,0.00940049,0.00940049,0.00940049,0.00940049,0.00940049,0.00940049,0.00940049,0.00940049,0.00940049,0.00940049,0.00940049,0.00940049,0.00940049,0.00940049,0.00940049,0.00940049,0.00940049,0.00940049,0.00940049,0.00940055,0.00940055,0.00940061,0.00940061,0.00940061,0.00940067,0.00920487,0.00920481,0.00920481,0.00940073,0.00940073,0.00920492,0.00920498,0.00920504,0.00940067,0.00940067,0.00940067,0.00940067,0.00940067,0.00940061,0.00940061,0.00940061,0.00940055,0.00940055,0.00940049,0.00940049,0.00940049,0.00940049,0.00940049,0.00940049,0.00940043,0.00940043,0.00940037,0.00940037,0.00940037,0.00940031,0.00940031,0.00940031,0.00940025,0.00940025,0.00940019,0.00940019,0.00940019,0.00940013,0.00940013,0.00940013,0.00940007,0.00940007,0.00940001,0.00940001,0.00940001,0.00940001,0.00940001,0.00939995,0.00939995,0.00939995,0.00939989,0.00939989,0.00939989,0.00939983,0.00939983,0.00939977,0.00939977,0.00939977,0.00939971,0.00939971,0.00939971,0.00939965,0.00939965,0.00939959,0.00939959,0.00939959,0.00939959,0.00939959,0.00939953,0.00939953,0.00939953,0.00939953,0.00939953,0.00925535,0.00899541,0.00884813,0.00880885,0.00876999,0.00874716,0.00874782,0.00870830,0.00870830,0.00870830,0.00870830,0.00870830,0.00870830,0.00870824,0.00870824,0.00870824,0.00870824,0.00870824,0.00870818,0.00870818,0.00870818,0.00870818,0.00870812,0.00870812,0.00870812,0.00870812,0.00870812,0.00870812,0.00870812,0.00870812,0.00870812,0.00870806,0.00870806,0.00870806,0.00870806,0.00870800,0.00870800,0.00870800,0.00870800,0.00870794,0.00870794,0.00870794,0.00870794,0.00870794,0.00870788,0.00870788,0.00870788,0.00870788,0.00870788,0.00870788,0.00870788,0.00870788,0.00870788,0.00870782,0.00870782,0.00870782,0.00870782,0.00870776,0.00870776,0.00870776,0.00870776,0.00870776,0.00870770,0.00870770,0.00870770,0.00870770,0.00870770,0.00870770,0.00870770,0.00870770,0.00870770,0.00870770,0.00870764,0.00870764,0.00870764,0.00870764,0.00870764,0.00867862,0.00860220,0.00852710,0.00845337,0.00838089,0.00830960,0.00823951,0.00817066,0.00810289,0.00803626,0.00797075,0.00790626,0.00784278,0.00778037,0.00771892,0.00765842,0.00759888,0.00754023,0.00748247,0.00742567,0.00736964,0.00731450,0.00726014,0.00720662,0.00715387,0.00710189
0.00765526,0.00771356,0.00777274,0.00783277,0.00789374,0.00795567,0.00801861,0.00808251,0.00814748,0.00821346,0.00828058,0.00835973,0.00835973,0.00835973,0.00835973,0.00835931,0.00835937,0.00835943,0.00837588,0.00844622,0.00851768,0.00859040,0.00866431,0.00874263,0.00882328,0.00890541,0.00898910,0.00902259,0.00902259,0.00902259,0.00902259,0.00902253,0.00902253,0.00902253,0.00902253,0.00902253,0.00902253,0.00902253,0.00902253,0.00902253,0.00902247,0.00902247,0.00902247,0.00902247,0.00902247,0.00902247,0.00902247,0.00902247,0.00902247,0.00902242,0.00902242,0.00902242,0.00902242,0.00902242,0.00902242,0.00902242,0.00902242,0.00902242,0.00902242,0.00902242,0.00902242,0.00902242,0.00902242,0.00902242,0.00902242,0.00902242,0.00902242,0.00902242,0.00902242,0.00902242,0.00902242,0.00902247,0.00902247,0.00902247,0.00902247,0.00902247,0.00902247,0.00902247,0.00902247,0.00902253,0.00902253,0.00902253,0.00902259,0.00902259,0.00902259,0.00902259,0.00902259,0.00902259,0.00902265,0.00902265,0.00902265,0.00902271,0.00902271,0.00902277,0.00883466,0.00883460,0.00902271,0.00902271,0.00902259,0.00883472,0.00883478,0.00902253,0.00902253,0.00902247,0.00902247,0.00902247,0.00902242,0.00902242,0.00902236,0.00902236,0.00902236,0.00902230,0.00902230,0.00902230,0.00902230,0.00902230,0.00902224,0.00902224,0.00902224,0.00902218,0.00902218,0.00902212,0.00902212,0.00902212,0.00902206,0.00902206,0.00902206,0.00902206,0.00902206,0.00902200,0.00902200,0.00902200,0.00902194,0.00902194,0.00902194,0.00902188,0.00902188,0.00902182,0.00902182,0.00902182,0.00902176,0.00902176,0.00902176,0.00902176,0.00902176,0.00902170,0.00902170,0.00902170,0.00902164,0.00902164,0.00902158,0.00902158,0.00902158,0.00902152,0.00902152,0.00902152,0.00902152,0.00902152,0.00902152,0.00902158,0.00902158,0.00902158,0.00902158,0.00902158,0.00902164,0.00902164,0.00902164,0.00902164,0.00902146,0.00900668,0.00876033,0.00852710,0.00847787,0.00844187,0.00840616,0.00838769,0.00836188,0.00835800,0.00835800,0.00835800,0.00835800,0.00835800,0.00835794,0.00835794,0.00835794,0.00835794,0.00835794,0.00835794,0.00835794,0.00835794,0.00835788,0.00835788,0.00835788,0.00835788,0.00835788,0.00835782,0.00835782,0.00835782,0.00835782,0.00835776,0.00835776,0.00835776,0.00835776,0.00835776,0.00835776,0.00835776,0.00835776,0.00835776,0.00835770,0.00835770,0.00835770,0.00835770,0.00835764,0.00835764,0.00835764,0.00835764,0.00835764,0.00835764,0.00835764,0.00835764,0.00835764,0.00835758,0.00835758,0.00835758,0.00835758,0.00835753,0.00835753,0.00835753,0.00835753,0.00835753,0.00835753,0.00835753,0.00835753,0.00835753,0.00835753,0.00835747,0.00835747,0.00835747,0.00835747,0.00835741,0.00835741,0.00835741,0.00835741,0.00835741,0.00835735,0.00835735,0.00835735,0.00835735,0.00835735,0.00838089,0.00830960,0.00823951,0.00817066,0.00810289,0.00803626,0.00797075,0.00790626,0.00784278,0.00778037,0.00771892,0.00765842,0.00759888,0.00754023,0.00748247,0.00742567,0.00736964,0.00731450,0.00726014,0.00720662,0.00715387,0.00710189
0.00765526,0.00771356,0.00777268,0.00783271,0.00789368,0.00795561,0.00802654,0.00803649,0.00803649,0.00803649,0.00806361,0.00803614,0.00803614,0.00803620,0.00809091,0.00815648,0.00822312,0.00829089,0.00836051,0.00843424,0.00850928,0.00858563,0.00866342,0.00867373,0.00867373,0.00867373,0.00867373,0.00867373,0.00867373,0.00867373,0.00867367,0.00867367,0.00867367,0.00867367,0.00867367,0.00867367,0.00867367,0.00867367,0.00867367,0.00867367,0.00867367,0.00867367,0.00867367,0.00867367,0.00867367,0.00867367,0.00867367,0.00867367,0.00867361,0.00867361,0.00867361,0.00867367,0.00867367,0.00867367,0.00867367,0.00867367,0.00867367,0.00867367,0.00867367,0.00867367,0.00867367,0.00867367,0.00867367,0.00867367,0.00867367,0.00867367,0.00867367,0.00867367,0.00867367,0.00867367,0.00867367,0.00867367,0.00867367,0.00867373,0.00867373,0.00867379,0.00867379,0.00867379,0.00867385,0.00867385,0.00867385,0.00867385,0.00867385,0.00867385,0.00867391,0.00867391,0.00867385,0.00867385,0.00867385,0.00867385,0.00867385,0.00867385,0.00849313,0.00849313,0.00849301,0.00867379,0.00867379,0.00849313,0.00849313,0.00849319,0.00867343,0.00867343,0.00867337,0.00867337,0.00867337,0.00867331,0.00867331,0.00867331,0.00867331,0.00867331,0.00867325,0.00867325,0.00867325,0.00867319,0.00867319,0.00867313,0.00867313,0.00867313,0.00867313,0.00867313,0.00867313,0.00867307,0.00867307,0.00867301,0.00867301,0.00867301,0.00867295,0.00867295,0.00867295,0.00867295,0.00867295,0.00867289,0.00867289,0.00867289,0.00867289,0.00867289,0.00867289,0.00867289,0.00867289,0.00867295,0.00867295,0.00867295,0.00867295,0.00867295,0.00867295,0.00867295,0.00867295,0.00867295,0.00867295,0.00867301,0.00867301,0.00867301,0.00867301,0.00867301,0.00867307,0.00867307,0.00867307,0.00867307,0.00867307,0.00867313,0.00867313,0.00867313,0.00867313,0.00867313,0.00867313,0.00867313,0.00867313,0.00867313,0.00867313,0.00867301,0.00867266,0.00853723,0.00831556,0.00817090,0.00813741,0.00810421,0.00807196,0.00805664,0.00803483,0.00803483,0.00803483,0.00803483,0.00803477,0.00803477,0.00803477,0.00803477,0.00803477,0.00803477,0.00803477,0.00803477,0.00803471,0.00803471,0.00803471,0.00803471,0.00803471,0.00803465,0.00803465,0.00803465,0.00803465,0.00803465,0.00803465,0.00803465,0.00803465,0.00803459,0.00803459,0.00803459,0.00803459,0.00803459,0.00803453,0.00803453,0.00803453,0.00803453,0.00803453,0.00803453,0.00803453,0.00803453,0.00803453,0.00803447,0.00803447,0.00803447,0.00803447,0.00803441,0.00803441,0.00803441,0.00803441,0.00803441,0.00803441,0.00803441,0.00803441,0.00803441,0.00803435,0.00803435,0.00803435,0.00803435,0.00803429,0.00803429,0.00803429,0.00803429,0.00803429,0.00803429,0.00803429,0.00803429,0.00803429,0.00803429,0.00803423,0.00803423,0.00803423,0.00803423,0.00803423,0.00803423,0.00803423,0.00803423,0.00803423,0.00803417,0.00803626,0.00797075,0.00790626,0.00784278,0.00778031,0.00771892,0.00765842,0.00759882,0.00754023,0.00748247,0.00742561,0.00736964,0.00731450,0.00726014,0.00720662,0.00715387,0.00710189
0.00765526,0.00771850,0.00773740,0.00773740,0.00773740,0.00774783,0.00773692,0.00773698,0.00773704,0.00776440,0.00782472,0.00788605,0.00794834,0.00801158,0.00807804,0.00814682,0.00821680,0.00828803,0.00835091,0.00835091,0.00835091,0.00835091,0.00835091,0.00835091,0.00835091,0.00835091,0.00835091,0.00835091,0.00835091,0.00835091,0.00835085,0.00835085,0.00835085,0.00835085,0.00835085,0.00835085,0.00835085,0.00835085,0.00835085,0.00835079,0.00835079,0.00835079,0.00835079,0.00835079,0.00835079,0.00835079,0.00835079,0.00835079,0.00835079,0.00835079,0.00835079,0.00835079,0.00835085,0.00835085,0.00835085,0.00835085,0.00835085,0.00835085,0.00835085,0.00835085,0.00835085,0.00835085,0.00835085,0.00835091,0.00835091,0.00835091,0.00835091,0.00835091,0.00835091,0.00835097,0.00835097,0.00835097,0.00835103,0.00835103,0.00835103,0.00835103,0.00835103,0.00835103,0.00835103,0.00835103,0.00835103,0.00835097,0.00835097,0.00835097,0.00835097,0.00835091,0.00835091,0.00835091,0.00835091,0.00835091,0.00835091,0.00817698,0.00817692,0.00835085,0.00835085,0.00835043,0.00817692,0.00817698,0.00817704,0.00835037,0.00835037,0.00835031,0.00835031,0.00835031,0.00835025,0.00835025,0.00835025,0.00835019,0.00835019,0.00835019,0.00835019,0.00835019,0.00835013,0.00835013,0.00835013,0.00835019,0.00835019,0.00835019,0.00835019,0.00835019,0.00835019,0.00835019,0.00835019,0.00835019,0.00835025,0.00835025,0.00835025,0.00835025,0.00835025,0.00835031,0.00835031,0.00835031,0.00835031,0.00835031,0.00835037,0.00835037,0.00835037,0.00835037,0.00835037,0.00835037,0.00835037,0.00835037,0.00835037,0.00835037,0.00835043,0.00835043,0.00835043,0.00835043,0.00835043,0.00835049,0.00835049,0.00835049,0.00835049,0.00835049,0.00835049,0.00835049,0.00835049,0.00835049,0.00835049,0.00835055,0.00835055,0.00835055,0.00835055,0.00835061,0.00835061,0.00835061,0.00835061,0.00835061,0.00835061,0.00835061,0.00835061,0.00835019,0.00832522,0.00811428,0.00791383,0.00785410,0.00782323,0.00779253,0.00776488,0.00775069,0.00773567,0.00773567,0.00773567,0.00773567,0.00773567,0.00773567,0.00773561,0.00773561,0.00773561,0.00773561,0.00773561,0.00773561,0.00773561,0.00773561,0.00773561,0.00773555,0.00773555,0.00773555,0.00773555,0.00773549,0.00773549,0.00773549,0.00773549,0.00773549,0.00773549,0.00773549,0.00773549,0.00773549,0.00773543,0.00773543,0.00773543,0.00773543,0.00773543,0.00773543,0.00773543,0.00773543,0.00773543,0.00773537,0.00773537,0.00773537,0.00773537,0.00773531,0.00773531,0.00773531,0.00773531,0.00773531,0.00773531,0.00773531,0.00773531,0.00773531,0.00773525,0.00773525,0.00773525,0.00773525,0.00773525,0.00773525,0.00773525,0.00773525,0.00773525,0.00773519,0.00773519,0.00773519,0.00773519,0.00773513,0.00773513,0.00773513,0.00773513,0.00773513,0.00773513,0.00773513,0.00773513,0.00773513,0.00773513,0.00773507,0.00773507,0.00773507,0.00773507,0.00773507,0.00773507,0.00771892,0.00765842,0.00759882,0.00754023,0.00748247,0.00742561,0.00736964,0.00731450,0.00726014,0.00720662,0.00715387,0.00710189
0.00745976,0.00745922,0.00745928,0.00745934,0.00746310,0.00751889,0.00757545,0.00763291,0.00769126,0.00775069,0.00781405,0.00787836,0.00794381,0.00801033,0.00805122,0.00805122,0.00805122,0.00805122,0.00805122,0.00805122,0.00805122,0.00805122,0.00805122,0.00805122,0.00805122,0.00805122,0.00805122,0.00805122,0.00805122,0.00805116,0.00805116,0.00805116,0.00805116,0.00805116,0.00805116,0.00805116,0.00805116,0.00805116,0.00805116,0.00805116,0.00805116,0.00805116,0.00805116,0.00805116,0.00805116,0.00805116,0.00805116,0.00805116,0.00805116,0.00805116,0.00805116,0.00805116,0.00805116,0.00805116,0.00805122,0.00805122,0.00805122,0.00805122,0.00805122,0.00805128,0.00805128,0.00805128,0.00805134,0.00805134,0.00805134,0.00805134,0.00805134,0.00805134,0.00805134,0.00805134,0.00805134,0.00805134,0.00805134,0.00805128,0.00805128,0.00805128,0.00805122,0.00805122,0.00805122,0.00805122,0.00805122,0.00805122,0.00805122,0.00805122,0.00805116,0.00805116,0.00805116,0.00805110,0.00805110,0.00788355,0.00788349,0.00788343,0.00805110,0.00805110,0.00805056,0.00788349,0.00788355,0.00805056,0.00805062,0.00805062,0.00805062,0.00805062,0.00805062,0.00805068,0.00805068,0.00805068,0.00805068,0.00805068,0.00805068,0.00805068,0.00805068,0.00805068,0.00805068,0.00805074,0.00805074,0.00805074,0.00805074,0.00805074,0.00805080,0.00805080,0.00805080,0.00805080,0.00805080,0.00805080,0.00805080,0.00805080,0.00805080,0.00805080,0.00805086,0.00805086,0.00805086,0.00805086,0.00805086,0.00805092,0.00805092,0.00805092,0.00805092,0.00805092,0.00805092,0.00805092,0.00805092,0.00805092,0.00805098,0.00805098,0.00805098,0.00805098,0.00805098,0.00805104,0.00805104,0.00805104,0.00805104,0.00805104,0.00805104,0.00805104,0.00805104,0.00805104,0.00805104,0.00805110,0.00805110,0.00805110,0.00805110,0.00805110,0.00805110,0.00805110,0.00805110,0.00805110,0.00805110,0.00805116,0.00805116,0.00805116,0.00805116,0.00805116,0.00805092,0.00805050,0.00792247,0.00773126,0.00758994,0.00756103,0.00753236,0.00750393,0.00748026,0.00749350,0.00745803,0.00745803,0.00745803,0.00745803,0.00745797,0.00745797,0.00745797,0.00745797,0.00745797,0.00745797,0.00745797,0.00745797,0.00745797,0.00745791,0.00745791,0.00745791,0.00745791,0.00745791,0.00745785,0.00745785,0.00745785,0.00745785,0.00745785,0.00745785,0.00745785,0.00745785,0.00745779,0.00745779,0.00745779,0.00745779,0.00745779,0.00745779,0.00745779,0.00745779,0.00745779,0.00745773,0.00745773,0.00745773,0.00745773,0.00745773,0.00745773,0.00745773,0.00745773,0.00745773,0.00745767,0.00745767,0.00745767,0.00745767,0.00745767,0.00745767,0.00745767,0.00745767,0.00745761,0.00745761,0.00745761,0.00745761,0.00745761,0.00745755,0.00745755,0.00745755,0.00745755,0.00745755,0.00745755,0.00745755,0.00745755,0.00745750,0.00745750,0.00745750,0.00745750,0.00745750,0.00745750,0.00745750,0.00745750,0.00745750,0.00745750,0.00745744,0.00745744,0.00745744,0.00745744,0.00745744,0.00745744,0.00745744,0.00742561,0.00736964,0.00731450,0.00726014,0.00720662,0.00715387,0.00710189
0.00723606,0.00728846,0.00734162,0.00739557,0.00745034,0.00750732,0.00756675,0.00762707,0.00768834,0.00775069,0.00777233,0.00777233,0.00777233,0.00777233,0.00777233,0.00777233,0.00777233,0.00777233,0.00777233,0.00777227,0.00777227,0.00777227,0.00777227,0.00777227,0.00777227,0.00777227,0.00777227,0.00777227,0.00777227,0.00777227,0.00777227,0.00777227,0.00777227,0.00777227,0.00777227,0.00777227,0.00777227,0.00777227,0.00777227,0.00777227,0.00777227,0.00777227,0.00777227,0.00777227,0.00777227,0.00777227,0.00777227,0.00777233,0.00777233,0.00777233,0.00777233,0.00777233,0.00777233,0.00777239,0.00777239,0.00777239,0.00777245,0.00777245,0.00777245,0.00777245,0.00777245,0.00777239,0.00777239,0.00777239,0.00777233,0.00777233,0.00777233,0.00777233,0.00777233,0.00777233,0.00777233,0.00777233,0.00777227,0.00777227,0.00777227,0.00777227,0.00777227,0.00777227,0.00777227,0.00777221,0.00777221,0.00777221,0.00777215,0.00777215,0.00777215,0.00777215,0.00777215,0.00777215,0.00761038,0.00761038,0.00777209,0.00777209,0.00777209,0.00761032,0.00761038,0.00761044,0.00777173,0.00777173,0.00777173,0.00777173,0.00777173,0.00777173,0.00777173,0.00777173,0.00777173,0.00777179,0.00777179,0.00777179,0.00777179,0.00777179,0.00777179,0.00777179,0.00777179,0.00777179,0.00777179,0.00777185,0.00777185,0.00777185,0.00777185,0.00777191,0.00777191,0.00777191,0.00777191,0.00777191,0.00777191,0.00777191,0.00777191,0.00777191,0.00777191,0.00777197,0.00777197,0.00777197,0.00777197,0.00777197,0.00777197,0.00777197,0.00777197,0.00777197,0.00777197,0.00777203,0.00777203,0.00777203,0.00777203,0.00777203,0.00777209,0.00777209,0.00777209,0.00777209,0.00777209,0.00777209,0.00777209,0.00777209,0.00777209,0.00777209,0.00777209,0.00777209,0.00777209,0.00777209,0.00777209,0.00777209,0.00777209,0.00777209,0.00777209,0.00777209,0.00777209,0.00777209,0.00777209,0.00777203,0.00777203,0.00777203,0.00777203,0.00777203,0.00777203,0.00777197,0.00777155,0.00773954,0.00755692,0.00738275,0.00731587,0.00728905,0.00726241,0.00723594,0.00721586,0.00720424,0.00719959,0.00719959,0.00719959,0.00719959,0.00719959,0.00719959,0.00719959,0.00719953,0.00719953,0.00719953,0.00719953,0.00719953,0.00719953,0.00719953,0.00719953,0.00719953,0.00719947,0.00719947,0.00719947,0.00719947,0.00719947,0.00719947,0.00719947,0.00719947,0.00719941,0.00719941,0.00719941,0.00719941,0.00719941,0.00719941,0.00719941,0.00719941,0.00719941,0.00719935,0.00719935,0.00719935,0.00719935,0.00719935,0.00719935,0.00719935,0.00719935,0.00719935,0.00719929,0.00719929,0.00719929,0.00719929,0.00719929,0.00719929,0.00719929,0.00719929,0.00719929,0.00719923,0.00719923,0.00719923,0.00719923,0.00719923,0.00719923,0.00719923,0.00719923,0.00719917,0.00719917,0.00719917,0.00719917,0.00719917,0.00719917,0.00719917,0.00719917,0.00719917,0.00719911,0.00719911,0.00719911,0.00719911,0.00719911,0.00719911,0.00719911,0.00719911,0.00719911,0.00719905,0.00719905,0.00719905,0.00719905,0.00719905,0.00719899,0.00719899,0.00720662,0.00715387,0.00710189
0.00722402,0.00727880,0.00733459,0.00739127,0.00744885,0.00750732,0.00751209,0.00751209,0.00751209,0.00751209,0.00751209,0.00751209,0.00751209,0.00751209,0.00751209,0.00751209,0.00751209,0.00751209,0.00751209,0.00751203,0.00751203,0.00751203,0.00751203,0.00751203,0.00751203,0.00751203,0.00751203,0.00751203,0.00751203,0.00751203,0.00751203,0.00751203,0.00751203,0.00751203,0.00751203,0.00751203,0.00751209,0.00751209,0.00751209,0.00751209,0.00751209,0.00751209,0.00751209,0.00751215,0.00751215,0.00751215,0.00751215,0.00751215,0.00751215,0.00751215,0.00751215,0.00751215,0.00751215,0.00751215,0.00751215,0.00751215,0.00751209,0.00751209,0.00751209,0.00751209,0.00751209,0.00751209,0.00751209,0.00751203,0.00751203,0.00751203,0.00751203,0.00751203,0.00751203,0.00751203,0.00751197,0.00751197,0.00751197,0.00751197,0.00751191,0.00751191,0.00751191,0.00751191,0.00751191,0.00751191,0.00751191,0.00751185,0.00751185,0.00751185,0.00751185,0.00751185,0.00735563,0.00735551,0.00735551,0.00751180,0.00751180,0.00751144,0.00735551,0.00735551,0.00735557,0.00751150,0.00751150,0.00751150,0.00751150,0.00751150,0.00751150,0.00751156,0.00751156,0.00751156,0.00751156,0.00751156,0.00751156,0.00751156,0.00751156,0.00751156,0.00751156,0.00751162,0.00751162,0.00751162,0.00751162,0.00751162,0.00751162,0.00751162,0.00751162,0.00751162,0.00751162,0.00751168,0.00751168,0.00751168,0.00751168,0.00751168,0.00751174,0.00751174,0.00751174,0.00751174,0.00751174,0.00751174,0.00751174,0.00751174,0.00751174,0.00751174,0.00751174,0.00751174,0.00751174,0.00751174,0.00751174,0.00751174,0.00751174,0.00751174,0.00751174,0.00751174,0.00751174,0.00751174,0.00751168,0.00751168,0.00751168,0.00751168,0.00751168,0.00751168,0.00751168,0.00751168,0.00751168,0.00751162,0.00751162,0.00751162,0.00751162,0.00751162,0.00751162,0.00751162,0.00751162,0.00751162,0.00751162,0.00751162,0.00751162,0.00751162,0.00751162,0.00751162,0.00751162,0.00751162,0.00751162,0.00751132,0.00751108,0.00739032,0.00722367,0.00708610,0.00706095,0.00703591,0.00701106,0.00698644,0.00696945,0.00695849,0.00695849,0.00695849,0.00695849,0.00695849,0.00695849,0.00695843,0.00695843,0.00695843,0.00695843,0.00695843,0.00695843,0.00695843,0.00695843,0.00695843,0.00695837,0.00695837,0.00695837,0.00695837,0.00695837,0.00695837,0.00695837,0.00695837,0.00695837,0.00695831,0.00695831,0.00695831,0.00695831,0.00695831,0.00695831,0.00695831,0.00695831,0.00695825,0.00695825,0.00695825,0.00695825,0.00695825,0.00695825,0.00695825,0.00695825,0.00695825,0.00695819,0.00695819,0.00695819,0.00695819,0.00695819,0.00695819,0.00695819,0.00695819,0.00695819,0.00695819,0.00695819,0.00695819,0.00695819,0.00695813,0.00695813,0.00695813,0.00695813,0.00695813,0.00695813,0.00695813,0.00695813,0.00695813,0.00695807,0.00695807,0.00695807,0.00695807,0.00695807,0.00695807,0.00695807,0.00695807,0.00695807,0.00695801,0.00695801,0.00695801,0.00695801,0.00695801,0.00695801,0.00695801,0.00695801,0.00695801,0.00695795,0.00695795,0.00695795,0.00695795,0.00695795
0.00722379,0.00726873,0.00726873,0.00726873,0.00726873,0.00726873,0.00726873,0.00726873,0.00726873,0.00726867,0.00726867,0.00726867,0.00726867,0.00726867,0.00726867,0.00726867,0.00726867,0.00726867,0.00726867,0.00726867,0.00726867,0.00726867,0.00726867,0.00726867,0.00726867,0.00726867,0.00726867,0.00726867,0.00726867,0.00726867,0.00726867,0.00726873,0.00726873,0.00726873,0.00726879,0.00726879,0.00726879,0.00726879,0.00726879,0.00726879,0.00726879,0.00726879,0.00726879,0.00726879,0.00726879,0.00726879,0.00726879,0.00726879,0.00726873,0.00726873,0.00726873,0.00726867,0.00726867,0.00726867,0.00726867,0.00726867,0.00726867,0.00726867,0.00726861,0.00726861,0.00726861,0.00726861,0.00726861,0.00726861,0.00726861,0.00726855,0.00726855,0.00726855,0.00726855,0.00726855,0.00726855,0.00726855,0.00726855,0.00726849,0.00726849,0.00726849,0.00726849,0.00726849,0.00726849,0.00726849,0.00726843,0.00726843,0.00726843,0.00726843,0.00711727,0.00711727,0.00711721,0.00726837,0.00726837,0.00726837,0.00726807,0.00711715,0.00711721,0.00726813,0.00726813,0.00726813,0.00726813,0.00726813,0.00726819,0.00726819,0.00726819,0.00726819,0.00726819,0.00726819,0.00726819,0.00726819,0.00726819,0.00726819,0.00726825,0.00726825,0.00726825,0.00726825,0.00726825,0.00726825,0.00726825,0.00726825,0.00726825,0.00726825,0.00726825,0.00726825,0.00726825,0.00726825,0.00726825,0.00726825,0.00726825,0.00726825,0.00726825,0.00726825,0.00726825,0.00726819,0.00726819,0.00726819,0.00726819,0.00726819,0.00726819,0.00726819,0.00726819,0.00726819,0.00726819,0.00726819,0.00726819,0.00726819,0.00726819,0.00726819,0.00726819,0.00726819,0.00726819,0.00726813,0.00726813,0.00726813,0.00726813,0.00726813,0.00726813,0.00726813,0.00726813,0.00726813,0.00726813,0.00726807,0.00726807,0.00726807,0.00726807,0.00726807,0.00726807,0.00726807,0.00726807,0.00726807,0.00726807,0.00726807,0.00726807,0.00726807,0.00726807,0.00726807,0.00726807,0.00726807,0.00726807,0.00726801,0.00726795,0.00726777,0.00723094,0.00707126,0.00691855,0.00684667,0.00682312,0.00679982,0.00677657,0.00675356,0.00679511,0.00673300,0.00673300,0.00673300,0.00673300,0.00673300,0.00673300,0.00673300,0.00673300,0.00673300,0.00673294,0.00673294,0.00673294,0.00673294,0.00673294,0.00673294,0.00673294,0.00673294,0.00673288,0.00673288,0.00673288,0.00673288,0.00673288,0.00673288,0.00673288,0.00673288,0.00673288,0.00673282,0.00673282,0.00673282,0.00673282,0.00673282,0.00673282,0.00673282,0.00673282,0.00673282,0.00673276,0.00673276,0.00673276,0.00673276,0.00673276,0.00673276,0.00673276,0.00673276,0.00673276,0.00673276,0.00673276,0.00673276,0.00673276,0.00673270,0.00673270,0.00673270,0.00673270,0.00673270,0.00673270,0.00673270,0.00673270,0.00673270,0.00673264,0.00673264,0.00673264,0.00673264,0.00673264,0.00673264,0.00673264,0.00673264,0.00673258,0.00673258,0.00673258,0.00673258,0.00673258,0.00673258,0.00673258,0.00673258,0.00673258,0.00673252,0.00673252,0.00673252,0.00673252,0.00673252,0.00673252,0.00673252,0.00673252,0.00673252,0.00673246
0.00704062,0.00704062,0.00704062,0.00704062,0.00704062,0.00704062,0.00704062,0.00704062,0.00704062,0.00704062,0.00704062,0.00704062,0.00704062,0.00704062,0.00704062,0.00704062,0.00704062,0.00704062,0.00704062,0.00704062,0.00704062,0.00704062,0.00704062,0.00704062,0.00704062,0.00704068,0.00704068,0.00704068,0.00704068,0.00704068,0.00704074,0.00704074,0.00704068,0.00704068,0.00704068,0.00704068,0.00704068,0.00704068,0.00704068,0.00704062,0.00704062,0.00704062,0.00704062,0.00704062,0.00704062,0.00704062,0.00704056,0.00704056,0.00704056,0.00704056,0.00704056,0.00704056,0.00704056,0.00704050,0.00704050,0.00704050,0.00704050,0.00704050,0.00704050,0.00704050,0.00704044,0.00704044,0.00704044,0.00704044,0.00704044,0.00704044,0.00704044,0.00704044,0.00704038,0.00704038,0.00704038,0.00704038,0.00704038,0.00704038,0.00704038,0.00704032,0.00704032,0.00704032,0.00704032,0.00704032,0.00704032,0.00704032,0.00704026,0.00689393,0.00689387,0.00689381,0.00704026,0.00704026,0.00704002,0.00689381,0.00689381,0.00689387,0.00704002,0.00704002,0.00704002,0.00704008,0.00704008,0.00704008,0.00704008,0.00704008,0.00704002,0.00704002,0.00704002,0.00704002,0.00704002,0.00704002,0.00704002,0.00704002,0.00704002,0.00704002,0.00704002,0.00704002,0.00704002,0.00704002,0.00704002,0.00704002,0.00704002,0.00704002,0.00704002,0.00703996,0.00703996,0.00703996,0.00703996,0.00703996,0.00703996,0.00703996,0.00703996,0.00703996,0.00703996,0.00703996,0.00703996,0.00703996,0.00703996,0.00703996,0.00703996,0.00703996,0.00703996,0.00703996,0.00703991,0.00703991,0.00703991,0.00703991,0.00703991,0.00703991,0.00703991,0.00703991,0.00703991,0.00703991,0.00703991,0.00703991,0.00703991,0.00703991,0.00703991,0.00703991,0.00703991,0.00703991,0.00703985,0.00703985,0.00703985,0.00703985,0.00703985,0.00703985,0.00703985,0.00703985,0.00703985,0.00703985,0.00703985,0.00703985,0.00703985,0.00703985,0.00703985,0.00703985,0.00703985,0.00703985,0.00703985,0.00703979,0.00703979,0.00703979,0.00703973,0.00703979,0.00692517,0.00677860,0.00664502,0.00662285,0.00660086,0.00657898,0.00655729,0.00653571,0.00655377,0.00652170,0.00652170,0.00652170,0.00652164,0.00652164,0.00652164,0.00652164,0.00652164,0.00652164,0.00652164,0.00652164,0.00652158,0.00652158,0.00652158,0.00652158,0.00652158,0.00652158,0.00652158,0.00652158,0.00652158,0.00652158,0.00652158,0.00652158,0.00652158,0.00652152,0.00652152,0.00652152,0.00652152,0.00652152,0.00652152,0.00652152,0.00652152,0.00652152,0.00652146,0.00652146,0.00652146,0.00652146,0.00652146,0.00652146,0.00652146,0.00652146,0.00652146,0.00652140,0.00652140,0.00652140,0.00652140,0.00652140,0.00652140,0.00652140,0.00652140,0.00652140,0.00652140,0.00652140,0.00652140,0.00652140,0.00652134,0.00652134,0.00652134,0.00652134,0.00652134,0.00652134,0.00652134,0.00652134,0.00652134,0.00652128,0.00652128,0.00652128,0.00652128,0.00652128,0.00652128,0.00652128,0.00652128,0.00652123,0.00652123,0.00652123,0.00652123,0.00652123,0.00652123,0.00652123,0.00652123,0.00652123,0.00652123
